ncols         748
nrows         31
xllcorner     8
yllcorner     339
cellsize      1
NODATA_value  -9999
230 235 235 239 238 238 238 241 245 258 258 266 267 269 269 277 282 288 288 298 301 304 304 322 329 336 336 348 353 352 352 346 341 336 336 322 323 325 325 338 347 357 371 371 377 384 404 404 419 431 456 456 468 468 460 460 452 440 413 413 399 381 376 376 386 397 414 414 417 421 413 413 416 424 434 434 441 443 439 439 433 427 405 405 389 375 349 349 348 346 341 341 337 332 328 328 326 324 325 325 326 325 323 323 315 312 308 308 301 298 295 295 288 286 286 286 286 287 285 285 282 281 285 285 289 286 284 284 270 260 249 249 233 231 228 228 220 205 204 204 204 206 214 214 228 235 235 235 232 229 234 234 239 240 241 241 255 257 260 260 264 266 269 269 292 304 312 328 328 335 343 366 366 380 392 418 418 419 421 440 440 451 462 492 492 505 519 538 538 552 555 556 556 553 549 539 539 534 533 542 542 552 560 555 555 547 539 518 518 528 539 549 549 552 556 559 559 561 558 550 550 545 539 525 525 516 505 488 488 475 468 454 454 433 426 422 422 420 424 436 436 466 462 457 457 451 457 463 463 468 478 489 489 500 504 522 522 563 586 597 597 611 613 620 620 632 638 640 640 637 634 630 630 620 615 609 609 598 595 590 590 584 580 576 576 572 572 575 575 583 587 590 591 591 590 589 583 583 578 573 560 560 554 548 530 530 524 518 505 505 498 493 483 483 477 471 445 445 437 429 414 414 403 392 356 356 345 333 355 355 410 434 470 470 481 481 475 475 469 462 453 453 450 450 453 453 454 455 449 449 445 440 441 441 445 449 455 455 454 451 447 447 424 414 403 403 412 428 465 465 495 506 511 511 517 519 519 519 520 519 518 518 519 519 518 518 513 512 511 511 507 504 501 501 481 472 464 464 443 430 425 425 422 425 423 423 415 403 395 395 386 396 406 406 413 411 409 404 404 402 399 394 394 390 385 374 374 369 365 357 357 353 348 342 342 341 339 342 342 345 349 356 356 357 359 357 357 353 347 336 336 330 325 320 320 320 321 328 328 328 329 329 329 328 326 323 323 321 318 309 309 301 295 283 283 276 270 263 263 251 246 240 240 230 222 220 220 214 210 206 206 200 198 199 199 214 228 265 265 286 287 288 288 287 294 302 302 325 333 344 344 348 350 349 349 344 340 335 335 322 315 310 310 296 291 286 286 273 266 258 258 250 247 243 243 271 286 299 299 322 332 339 348 348 350 349 347 347 349 352 353 353 355 357 362 362 363 365 361 361 357 348 340 340 335 334 334 334 336 328 315 315 311 306 289 289 285 281 276 276 278 281 283 283 283 282 270 270 265 260 253 253 250 247 240 240 236 234 230 230 231 233 237 237 247 254 255 255 259 262 262 262 263 263 263 263 263 262 261 261 255 251 247 247 237 228 223 223 213 208 204 204 198 195 195 195 194 193 190 190 187 187 186 186 183 183 182 182 181 179 173 173 169 169 172 172 169 162 162 162 161 161 162 162 169 172 176 183 183 187 191 199 199 204 209 214 214 215 215 215 215 214 214 215 215 217 222 232 232 240 244 245 245 243 241 236 236 234 231 224 224 221 217 215 215 214 213 212 212 211 209 206 206 204 203 194 194 188 182 175 175 175 174 175 175 176 178 179 179 180 182 184 184 190 194 198 198 208 212 216 216 222 221 220 220 218 216 215
230 235 235 239 238 238 238 241 245 258 258 266 267 269 269 277 282 288 288 298 301 304 304 322 329 336 336 348 353 352 352 346 341 336 336 322 323 325 325 338 347 357 371 371 377 384 404 404 419 431 456 456 468 468 460 460 452 440 413 413 399 381 376 376 386 397 414 414 417 421 413 413 416 424 434 434 441 443 439 439 433 427 405 405 389 375 349 349 348 346 341 341 337 332 328 328 326 324 325 325 326 325 323 323 315 312 308 308 301 298 295 295 288 286 286 286 286 287 285 285 282 281 285 285 289 286 284 284 270 260 249 249 233 231 228 228 220 205 204 204 204 206 214 214 228 235 235 235 232 229 234 234 239 240 241 241 255 257 260 260 264 266 269 269 292 304 312 328 328 335 343 366 366 380 392 418 418 419 421 440 440 451 462 492 492 505 519 538 538 552 555 556 556 553 549 539 539 534 533 542 542 552 560 555 555 547 539 518 518 528 539 549 549 552 556 559 559 561 558 550 550 545 539 525 525 516 505 488 488 475 468 454 454 433 426 422 422 420 424 436 436 466 462 457 457 451 457 463 463 468 478 489 489 500 504 522 522 563 586 597 597 611 613 620 620 632 638 640 640 637 634 630 630 620 615 609 609 598 595 590 590 584 580 576 576 572 572 575 575 583 587 590 591 591 590 589 583 583 578 573 560 560 554 548 530 530 524 518 505 505 498 493 483 483 477 471 445 445 437 429 414 414 403 392 356 356 345 333 355 355 410 434 470 470 481 481 475 475 469 462 453 453 450 450 453 453 454 455 449 449 445 440 441 441 445 449 455 455 454 451 447 447 424 414 403 403 412 428 465 465 495 506 511 511 517 519 519 519 520 519 518 518 519 519 518 518 513 512 511 511 507 504 501 501 481 472 464 464 443 430 425 425 422 425 423 423 415 403 395 395 386 396 406 406 413 411 409 404 404 402 399 394 394 390 385 374 374 369 365 357 357 353 348 342 342 341 339 342 342 345 349 356 356 357 359 357 357 353 347 336 336 330 325 320 320 320 321 328 328 328 329 329 329 328 326 323 323 321 318 309 309 301 295 283 283 276 270 263 263 251 246 240 240 230 222 220 220 214 210 206 206 200 198 199 199 214 228 265 265 286 287 288 288 287 294 302 302 325 333 344 344 348 350 349 349 344 340 335 335 322 315 310 310 296 291 286 286 273 266 258 258 250 247 243 243 271 286 299 299 322 332 339 348 348 350 349 347 347 349 352 353 353 355 357 362 362 363 365 361 361 357 348 340 340 335 334 334 334 336 328 315 315 311 306 289 289 285 281 276 276 278 281 283 283 283 282 270 270 265 260 253 253 250 247 240 240 236 234 230 230 231 233 237 237 247 254 255 255 259 262 262 262 263 263 263 263 263 262 261 261 255 251 247 247 237 228 223 223 213 208 204 204 198 195 195 195 194 193 190 190 187 187 186 186 183 183 182 182 181 179 173 173 169 169 172 172 169 162 162 162 161 161 162 162 169 172 176 183 183 187 191 199 199 204 209 214 214 215 215 215 215 214 214 215 215 217 222 232 232 240 244 245 245 243 241 236 236 234 231 224 224 221 217 215 215 214 213 212 212 211 209 206 206 204 203 194 194 188 182 175 175 175 174 175 175 176 178 179 179 180 182 184 184 190 194 198 198 208 212 216 216 222 221 220 220 218 216 215
248 245 245 240 237 239 239 246 252 265 265 273 273 274 274 281 286 292 292 305 310 315 315 329 336 343 343 352 355 353 353 345 339 334 334 318 324 331 331 352 363 374 394 394 400 407 428 428 447 454 462 462 463 459 445 445 436 424 400 400 387 373 367 367 375 383 398 398 401 405 408 408 411 419 431 431 439 442 442 442 439 430 406 406 390 377 358 358 356 353 342 342 339 336 329 329 328 327 326 326 325 322 319 319 315 312 308 308 301 299 296 296 288 285 285 285 285 286 284 284 282 281 284 284 287 284 282 282 269 262 254 254 243 238 233 233 221 204 203 203 202 203 208 208 218 222 225 225 233 237 244 244 249 247 245 245 250 252 255 255 262 266 270 270 294 305 319 345 345 356 366 387 387 399 410 438 438 442 446 443 443 444 445 464 464 473 483 504 504 508 509 507 507 503 499 490 490 486 491 517 517 538 550 542 542 533 524 511 511 519 527 537 537 542 553 561 561 563 560 549 549 541 531 509 509 496 484 466 466 454 448 445 445 448 456 446 446 427 417 419 419 431 433 436 436 470 482 495 495 478 480 482 482 515 532 552 552 591 610 618 618 627 629 630 630 632 634 634 634 631 628 624 624 616 612 607 607 600 596 589 589 584 581 579 579 579 582 584 584 591 595 598 594 594 592 590 580 580 576 571 558 558 551 544 523 523 515 507 494 494 489 485 476 476 470 463 440 440 430 419 394 394 382 369 350 350 342 334 361 361 420 441 474 474 485 485 480 480 476 472 466 466 465 464 467 467 467 466 457 457 450 443 445 445 454 461 468 468 466 463 460 460 437 424 411 411 409 424 456 456 487 501 510 510 523 528 529 529 530 528 524 524 514 510 506 506 496 499 502 502 507 506 505 505 489 483 474 474 452 439 425 425 407 402 402 402 401 390 382 382 384 397 410 410 420 417 414 410 410 408 403 396 396 392 387 378 378 374 369 360 360 355 348 341 341 338 335 338 338 344 351 361 361 361 361 353 353 349 344 334 334 329 329 331 331 334 335 337 337 336 334 329 329 326 323 316 316 311 306 297 297 292 289 281 281 277 273 269 269 260 255 249 249 236 228 224 224 215 210 206 206 200 198 198 198 203 208 237 237 255 253 250 250 260 273 286 286 305 314 332 332 345 350 349 349 343 338 332 332 318 309 305 305 295 291 286 286 272 263 254 254 242 243 244 244 278 291 302 302 322 330 335 342 342 344 343 340 340 340 343 348 348 352 356 361 361 362 364 359 359 355 347 338 338 333 330 327 327 329 322 309 309 303 300 295 295 294 293 282 282 277 271 266 266 265 263 261 261 258 255 249 249 246 244 239 239 237 237 241 241 245 250 254 254 263 268 270 270 272 271 271 271 269 269 269 269 266 263 260 260 250 246 241 241 231 222 217 217 209 206 203 203 197 195 195 195 194 194 194 194 192 192 191 191 185 184 183 183 181 181 176 176 169 167 167 167 166 164 163 163 161 159 160 160 169 173 177 186 186 189 192 196 196 199 203 213 213 214 214 213 213 211 213 219 219 223 227 234 234 241 245 248 248 246 244 240 240 237 234 228 228 224 217 212 212 210 209 205 205 203 202 198 198 195 192 179 179 176 173 172 172 173 174 176 176 176 177 184 184 189 192 195 195 201 205 210 210 218 221 225 225 223 220 219 219 215 213 212
248 245 245 240 237 239 239 246 252 265 265 273 273 274 274 281 286 292 292 305 310 315 315 329 336 343 343 352 355 353 353 345 339 334 334 318 324 331 331 352 363 374 394 394 400 407 428 428 447 454 462 462 463 459 445 445 436 424 400 400 387 373 367 367 375 383 398 398 401 405 408 408 411 419 431 431 439 442 442 442 439 430 406 406 390 377 358 358 356 353 342 342 339 336 329 329 328 327 326 326 325 322 319 319 315 312 308 308 301 299 296 296 288 285 285 285 285 286 284 284 282 281 284 284 287 284 282 282 269 262 254 254 243 238 233 233 221 204 203 203 202 203 208 208 218 222 225 225 233 237 244 244 249 247 245 245 250 252 255 255 262 266 270 270 294 305 319 345 345 356 366 387 387 399 410 438 438 442 446 443 443 444 445 464 464 473 483 504 504 508 509 507 507 503 499 490 490 486 491 517 517 538 550 542 542 533 524 511 511 519 527 537 537 542 553 561 561 563 560 549 549 541 531 509 509 496 484 466 466 454 448 445 445 448 456 446 446 427 417 419 419 431 433 436 436 470 482 495 495 478 480 482 482 515 532 552 552 591 610 618 618 627 629 630 630 632 634 634 634 631 628 624 624 616 612 607 607 600 596 589 589 584 581 579 579 579 582 584 584 591 595 598 594 594 592 590 580 580 576 571 558 558 551 544 523 523 515 507 494 494 489 485 476 476 470 463 440 440 430 419 394 394 382 369 350 350 342 334 361 361 420 441 474 474 485 485 480 480 476 472 466 466 465 464 467 467 467 466 457 457 450 443 445 445 454 461 468 468 466 463 460 460 437 424 411 411 409 424 456 456 487 501 510 510 523 528 529 529 530 528 524 524 514 510 506 506 496 499 502 502 507 506 505 505 489 483 474 474 452 439 425 425 407 402 402 402 401 390 382 382 384 397 410 410 420 417 414 410 410 408 403 396 396 392 387 378 378 374 369 360 360 355 348 341 341 338 335 338 338 344 351 361 361 361 361 353 353 349 344 334 334 329 329 331 331 334 335 337 337 336 334 329 329 326 323 316 316 311 306 297 297 292 289 281 281 277 273 269 269 260 255 249 249 236 228 224 224 215 210 206 206 200 198 198 198 203 208 237 237 255 253 250 250 260 273 286 286 305 314 332 332 345 350 349 349 343 338 332 332 318 309 305 305 295 291 286 286 272 263 254 254 242 243 244 244 278 291 302 302 322 330 335 342 342 344 343 340 340 340 343 348 348 352 356 361 361 362 364 359 359 355 347 338 338 333 330 327 327 329 322 309 309 303 300 295 295 294 293 282 282 277 271 266 266 265 263 261 261 258 255 249 249 246 244 239 239 237 237 241 241 245 250 254 254 263 268 270 270 272 271 271 271 269 269 269 269 266 263 260 260 250 246 241 241 231 222 217 217 209 206 203 203 197 195 195 195 194 194 194 194 192 192 191 191 185 184 183 183 181 181 176 176 169 167 167 167 166 164 163 163 161 159 160 160 169 173 177 186 186 189 192 196 196 199 203 213 213 214 214 213 213 211 213 219 219 223 227 234 234 241 245 248 248 246 244 240 240 237 234 228 228 224 217 212 212 210 209 205 205 203 202 198 198 195 192 179 179 176 173 172 172 173 174 176 176 176 177 184 184 189 192 195 195 201 205 210 210 218 221 225 225 223 220 219 219 215 213 212
243 240 240 236 237 240 240 249 255 264 264 271 272 274 274 289 294 300 300 309 315 321 321 340 348 355 355 362 362 356 356 344 339 333 333 318 329 341 341 365 377 389 411 411 419 428 446 446 458 456 448 448 443 437 424 424 416 405 384 384 374 361 367 367 374 381 398 398 403 409 416 416 421 430 440 440 446 450 452 452 449 435 405 405 388 379 363 363 359 355 346 346 343 340 330 330 328 325 325 325 324 321 317 317 313 311 308 308 301 299 297 297 288 285 284 284 282 282 280 280 280 283 283 283 284 279 274 274 260 257 253 253 244 241 237 237 215 203 202 202 202 203 205 205 212 217 223 223 232 235 246 246 250 250 249 249 253 257 261 261 270 271 272 272 292 305 323 361 361 380 388 408 408 419 430 451 451 451 450 428 428 422 415 423 423 433 444 467 467 464 463 456 456 450 447 447 447 451 469 506 506 525 528 519 519 514 508 517 517 522 528 538 538 542 554 562 562 564 560 548 548 540 524 491 491 474 463 449 449 450 453 460 460 475 483 472 472 451 441 438 438 433 442 452 452 497 510 524 524 527 527 526 526 558 573 587 587 611 621 626 626 631 632 631 631 630 630 629 629 627 625 622 622 616 613 610 610 603 599 592 592 586 584 584 584 584 585 588 588 594 597 598 594 594 591 588 579 579 574 569 557 557 551 544 515 515 503 492 475 475 469 465 456 456 451 444 424 424 412 399 379 379 376 373 360 360 350 339 372 372 431 450 478 478 487 487 485 485 482 480 477 477 476 473 473 473 471 468 455 455 449 443 450 450 466 474 480 480 479 475 471 471 453 440 426 426 413 417 433 433 466 487 502 502 525 533 534 534 534 531 525 525 503 493 482 482 477 487 497 497 510 511 513 513 497 489 478 478 454 441 429 429 404 391 386 386 381 375 370 370 386 400 414 414 425 424 422 416 416 414 408 401 401 396 392 386 386 384 376 361 361 355 347 339 339 336 333 334 334 343 353 365 365 365 366 357 357 352 348 340 340 337 339 344 344 346 346 345 345 342 339 331 331 327 323 316 316 312 308 305 305 302 300 296 296 293 289 285 285 272 265 257 257 242 227 221 221 213 210 206 206 201 199 198 198 198 200 214 214 229 233 238 238 262 276 290 290 306 315 333 333 344 346 343 343 333 327 321 321 308 300 295 295 284 280 276 276 264 256 247 247 239 246 254 254 286 296 305 305 321 328 331 335 335 335 334 332 332 334 337 347 347 351 356 362 362 362 362 358 358 354 346 337 337 332 328 319 319 315 313 309 309 308 310 311 311 307 303 290 290 285 280 273 273 272 270 259 259 254 251 246 246 243 243 244 244 245 247 254 254 260 266 270 270 277 280 280 280 279 277 276 276 274 273 272 272 265 261 256 256 243 238 233 233 225 216 214 214 208 205 203 203 199 196 196 196 198 200 198 198 192 191 190 190 188 187 185 185 184 184 181 181 175 171 168 168 163 160 160 160 159 158 158 158 163 170 177 189 189 192 195 196 196 198 201 206 206 207 209 213 213 214 217 222 222 225 228 234 234 239 243 246 246 245 244 242 242 239 235 227 227 223 217 211 211 208 206 201 201 198 196 192 192 189 184 170 170 170 171 181 181 188 195 200 200 199 197 196 196 198 199 201 201 209 212 216 216 226 228 230 230 223 221 220 220 216 213 212
232 233 233 237 240 243 243 251 256 263 263 273 276 280 280 294 299 305 305 318 326 334 334 351 358 363 363 366 362 356 356 345 340 333 333 321 333 345 345 370 385 401 425 425 435 446 457 457 449 439 423 423 416 410 398 398 392 385 370 370 363 351 364 364 374 385 412 412 417 422 432 432 438 447 454 454 459 460 455 455 448 434 407 407 394 387 369 369 364 358 349 349 344 339 324 324 325 326 326 326 323 320 317 317 313 311 308 308 301 298 295 295 287 284 282 282 278 276 275 275 279 285 285 285 286 282 277 277 262 259 255 255 247 246 245 245 221 202 201 201 201 202 205 205 214 221 225 225 234 238 248 248 252 252 253 253 260 263 267 267 276 276 275 275 289 301 319 358 358 380 396 424 424 435 437 437 437 436 434 410 410 396 381 385 385 398 412 429 429 421 419 413 413 408 415 444 444 465 482 501 501 503 500 503 503 509 515 535 535 539 543 549 549 551 558 564 564 566 562 548 548 538 521 485 485 466 458 455 455 468 476 485 485 502 510 503 503 485 475 470 470 460 462 465 465 505 525 545 545 568 574 580 580 599 606 610 610 618 622 624 624 627 626 625 625 623 625 626 626 626 625 623 623 617 614 611 611 604 600 593 593 588 586 586 586 585 586 588 588 593 596 596 594 594 591 588 579 579 575 570 557 557 551 544 519 519 510 499 483 483 478 471 454 454 445 440 428 428 422 416 403 403 398 392 361 361 351 340 373 373 427 446 476 476 488 489 488 488 486 485 481 481 479 473 466 466 462 458 448 448 449 451 459 459 475 484 492 492 493 491 488 488 471 458 444 444 431 427 426 426 449 468 487 487 517 528 533 533 535 531 523 523 491 476 461 461 468 483 498 498 517 518 520 520 497 486 474 474 449 436 426 426 404 393 383 383 367 362 363 363 393 404 416 416 428 428 428 424 424 421 414 406 406 402 397 390 390 388 378 361 361 353 345 335 335 332 328 334 334 344 355 371 371 373 375 365 365 361 358 353 353 351 352 356 356 358 357 351 351 347 342 334 334 330 325 320 320 319 317 316 316 312 310 304 304 300 295 290 290 275 268 261 261 240 223 221 221 220 221 221 221 215 209 204 204 199 198 203 203 219 231 243 243 274 285 297 297 312 323 336 336 338 337 333 333 323 317 312 312 301 294 287 287 269 267 264 264 252 246 240 240 243 255 267 267 297 305 311 311 320 324 325 326 326 325 326 329 329 336 340 349 349 353 358 362 362 362 362 359 359 356 349 340 340 335 331 327 327 328 328 325 325 323 324 321 321 316 311 300 300 297 293 288 288 286 284 268 268 262 258 252 252 251 256 263 263 264 267 277 277 281 285 287 287 291 292 289 289 283 279 276 276 270 269 268 268 259 254 248 248 236 233 230 230 226 226 224 224 218 214 212 212 207 205 206 206 206 204 200 200 194 192 190 190 190 189 187 187 185 185 184 184 180 178 173 173 164 160 159 159 158 157 157 157 158 161 164 180 180 186 192 196 196 196 197 202 202 205 207 212 212 215 218 223 223 225 227 231 231 235 238 243 243 243 242 239 239 236 233 226 226 222 216 210 210 206 204 198 198 195 191 182 182 177 173 171 171 179 188 211 211 217 224 231 231 227 222 214 214 210 209 207 207 214 220 226 226 235 233 230 230 225 223 221 221 216 213 212
232 233 233 237 240 243 243 251 256 263 263 273 276 280 280 294 299 305 305 318 326 334 334 351 358 363 363 366 362 356 356 345 340 333 333 321 333 345 345 370 385 401 425 425 435 446 457 457 449 439 423 423 416 410 398 398 392 385 370 370 363 351 364 364 374 385 412 412 417 422 432 432 438 447 454 454 459 460 455 455 448 434 407 407 394 387 369 369 364 358 349 349 344 339 324 324 325 326 326 326 323 320 317 317 313 311 308 308 301 298 295 295 287 284 282 282 278 276 275 275 279 285 285 285 286 282 277 277 262 259 255 255 247 246 245 245 221 202 201 201 201 202 205 205 214 221 225 225 234 238 248 248 252 252 253 253 260 263 267 267 276 276 275 275 289 301 319 358 358 380 396 424 424 435 437 437 437 436 434 410 410 396 381 385 385 398 412 429 429 421 419 413 413 408 415 444 444 465 482 501 501 503 500 503 503 509 515 535 535 539 543 549 549 551 558 564 564 566 562 548 548 538 521 485 485 466 458 455 455 468 476 485 485 502 510 503 503 485 475 470 470 460 462 465 465 505 525 545 545 568 574 580 580 599 606 610 610 618 622 624 624 627 626 625 625 623 625 626 626 626 625 623 623 617 614 611 611 604 600 593 593 588 586 586 586 585 586 588 588 593 596 596 594 594 591 588 579 579 575 570 557 557 551 544 519 519 510 499 483 483 478 471 454 454 445 440 428 428 422 416 403 403 398 392 361 361 351 340 373 373 427 446 476 476 488 489 488 488 486 485 481 481 479 473 466 466 462 458 448 448 449 451 459 459 475 484 492 492 493 491 488 488 471 458 444 444 431 427 426 426 449 468 487 487 517 528 533 533 535 531 523 523 491 476 461 461 468 483 498 498 517 518 520 520 497 486 474 474 449 436 426 426 404 393 383 383 367 362 363 363 393 404 416 416 428 428 428 424 424 421 414 406 406 402 397 390 390 388 378 361 361 353 345 335 335 332 328 334 334 344 355 371 371 373 375 365 365 361 358 353 353 351 352 356 356 358 357 351 351 347 342 334 334 330 325 320 320 319 317 316 316 312 310 304 304 300 295 290 290 275 268 261 261 240 223 221 221 220 221 221 221 215 209 204 204 199 198 203 203 219 231 243 243 274 285 297 297 312 323 336 336 338 337 333 333 323 317 312 312 301 294 287 287 269 267 264 264 252 246 240 240 243 255 267 267 297 305 311 311 320 324 325 326 326 325 326 329 329 336 340 349 349 353 358 362 362 362 362 359 359 356 349 340 340 335 331 327 327 328 328 325 325 323 324 321 321 316 311 300 300 297 293 288 288 286 284 268 268 262 258 252 252 251 256 263 263 264 267 277 277 281 285 287 287 291 292 289 289 283 279 276 276 270 269 268 268 259 254 248 248 236 233 230 230 226 226 224 224 218 214 212 212 207 205 206 206 206 204 200 200 194 192 190 190 190 189 187 187 185 185 184 184 180 178 173 173 164 160 159 159 158 157 157 157 158 161 164 180 180 186 192 196 196 196 197 202 202 205 207 212 212 215 218 223 223 225 227 231 231 235 238 243 243 243 242 239 239 236 233 226 226 222 216 210 210 206 204 198 198 195 191 182 182 177 173 171 171 179 188 211 211 217 224 231 231 227 222 214 214 210 209 207 207 214 220 226 226 235 233 230 230 225 223 221 221 216 213 212
232 233 233 237 240 243 243 251 256 263 263 273 276 280 280 294 299 305 305 318 326 334 334 351 358 363 363 366 362 356 356 345 340 333 333 321 333 345 345 370 385 401 425 425 435 446 457 457 449 439 423 423 416 410 398 398 392 385 370 370 363 351 364 364 374 385 412 412 417 422 432 432 438 447 454 454 459 460 455 455 448 434 407 407 394 387 369 369 364 358 349 349 344 339 324 324 325 326 326 326 323 320 317 317 313 311 308 308 301 298 295 295 287 284 282 282 278 276 275 275 279 285 285 285 286 282 277 277 262 259 255 255 247 246 245 245 221 202 201 201 201 202 205 205 214 221 225 225 234 238 248 248 252 252 253 253 260 263 267 267 276 276 275 275 289 301 319 358 358 380 396 424 424 435 437 437 437 436 434 410 410 396 381 385 385 398 412 429 429 421 419 413 413 408 415 444 444 465 482 501 501 503 500 503 503 509 515 535 535 539 543 549 549 551 558 564 564 566 562 548 548 538 521 485 485 466 458 455 455 468 476 485 485 502 510 503 503 485 475 470 470 460 462 465 465 505 525 545 545 568 574 580 580 599 606 610 610 618 622 624 624 627 626 625 625 623 625 626 626 626 625 623 623 617 614 611 611 604 600 593 593 588 586 586 586 585 586 588 588 593 596 596 594 594 591 588 579 579 575 570 557 557 551 544 519 519 510 499 483 483 478 471 454 454 445 440 428 428 422 416 403 403 398 392 361 361 351 340 373 373 427 446 476 476 488 489 488 488 486 485 481 481 479 473 466 466 462 458 448 448 449 451 459 459 475 484 492 492 493 491 488 488 471 458 444 444 431 427 426 426 449 468 487 487 517 528 533 533 535 531 523 523 491 476 461 461 468 483 498 498 517 518 520 520 497 486 474 474 449 436 426 426 404 393 383 383 367 362 363 363 393 404 416 416 428 428 428 424 424 421 414 406 406 402 397 390 390 388 378 361 361 353 345 335 335 332 328 334 334 344 355 371 371 373 375 365 365 361 358 353 353 351 352 356 356 358 357 351 351 347 342 334 334 330 325 320 320 319 317 316 316 312 310 304 304 300 295 290 290 275 268 261 261 240 223 221 221 220 221 221 221 215 209 204 204 199 198 203 203 219 231 243 243 274 285 297 297 312 323 336 336 338 337 333 333 323 317 312 312 301 294 287 287 269 267 264 264 252 246 240 240 243 255 267 267 297 305 311 311 320 324 325 326 326 325 326 329 329 336 340 349 349 353 358 362 362 362 362 359 359 356 349 340 340 335 331 327 327 328 328 325 325 323 324 321 321 316 311 300 300 297 293 288 288 286 284 268 268 262 258 252 252 251 256 263 263 264 267 277 277 281 285 287 287 291 292 289 289 283 279 276 276 270 269 268 268 259 254 248 248 236 233 230 230 226 226 224 224 218 214 212 212 207 205 206 206 206 204 200 200 194 192 190 190 190 189 187 187 185 185 184 184 180 178 173 173 164 160 159 159 158 157 157 157 158 161 164 180 180 186 192 196 196 196 197 202 202 205 207 212 212 215 218 223 223 225 227 231 231 235 238 243 243 243 242 239 239 236 233 226 226 222 216 210 210 206 204 198 198 195 191 182 182 177 173 171 171 179 188 211 211 217 224 231 231 227 222 214 214 210 209 207 207 214 220 226 226 235 233 230 230 225 223 221 221 216 213 212
227 230 230 237 241 244 244 254 260 270 270 280 284 288 288 298 303 309 309 329 336 344 344 361 370 371 371 367 360 354 354 342 335 326 326 322 333 344 344 375 392 410 442 442 450 458 450 450 427 417 399 399 391 384 374 374 371 367 356 356 348 348 369 369 380 391 414 414 420 427 447 447 449 454 457 457 459 457 448 448 441 431 410 410 399 394 375 375 368 360 349 349 340 331 320 320 323 327 325 325 322 319 316 316 312 310 307 307 301 299 296 296 286 283 281 281 277 274 272 272 276 282 284 284 291 288 281 281 266 262 258 258 249 247 244 244 228 202 201 201 201 202 205 205 216 225 232 232 242 245 252 252 257 257 258 258 265 269 273 273 282 285 288 288 286 293 309 348 348 370 393 427 427 438 432 408 408 408 409 395 395 379 362 357 357 368 379 390 390 383 381 387 387 395 419 464 464 485 492 497 497 494 509 518 518 525 533 546 546 549 553 559 559 560 564 566 566 567 562 544 544 530 514 487 487 475 466 465 465 485 496 506 506 527 538 537 537 528 520 515 515 505 505 505 505 513 534 555 555 580 587 594 594 606 609 609 609 612 615 617 617 618 616 616 616 617 621 623 623 625 624 622 622 617 614 611 611 603 599 592 592 587 585 584 584 582 583 585 585 589 592 594 592 592 589 585 579 579 575 570 561 561 554 546 527 527 522 515 502 502 496 488 473 473 466 460 440 440 432 424 405 405 392 379 360 360 352 343 365 365 410 432 471 471 487 489 488 488 485 482 476 476 473 463 456 456 455 453 454 454 455 456 463 463 479 488 500 500 507 506 504 504 488 483 478 478 456 447 436 436 444 456 473 473 502 513 520 520 525 523 516 516 482 465 447 447 460 477 495 495 516 516 516 516 488 476 463 463 438 426 415 415 395 386 377 377 361 359 365 365 393 405 417 417 429 431 433 430 430 427 418 408 408 403 399 389 389 383 374 357 357 349 337 328 328 326 324 336 336 347 359 379 379 382 385 376 376 373 370 367 367 366 368 370 370 371 369 356 356 351 346 339 339 336 333 330 330 329 327 324 324 317 314 306 306 301 294 287 287 272 265 258 258 235 225 226 226 233 238 236 236 225 217 211 211 201 197 199 199 216 229 243 243 279 290 302 302 321 328 336 336 337 335 331 331 320 314 307 307 293 285 278 278 257 254 250 250 242 240 238 238 257 270 283 283 307 314 317 317 320 320 319 320 320 322 327 336 336 343 346 353 353 356 359 361 361 361 361 360 360 358 352 345 345 341 339 338 338 339 343 342 342 337 336 331 331 328 325 310 310 309 307 299 299 295 291 277 277 269 264 267 267 277 280 283 283 282 286 296 296 297 299 299 299 295 292 289 289 282 278 274 274 263 260 257 257 249 245 240 240 236 238 240 240 239 235 234 234 230 227 222 222 215 212 212 212 210 207 203 203 199 196 192 192 188 188 187 187 186 186 185 185 183 182 178 178 169 165 163 163 160 158 158 158 157 157 158 168 168 175 183 191 191 194 198 199 199 200 203 210 210 215 220 225 225 225 225 226 226 230 232 236 236 236 236 235 235 233 230 224 224 221 215 210 210 208 206 199 199 195 190 177 177 169 169 185 185 197 210 234 234 241 248 253 253 251 249 243 243 229 224 218 218 219 223 227 227 234 234 234 234 233 228 225 225 220 217 216
227 231 231 239 243 246 246 256 262 277 277 288 292 296 296 303 308 313 313 328 333 339 339 361 370 370 370 362 353 346 346 328 318 315 315 326 339 353 353 387 405 423 453 453 453 453 436 436 416 406 384 384 373 365 354 354 351 349 343 343 339 355 379 379 390 402 417 417 426 436 455 455 456 455 450 450 447 443 437 437 434 427 411 411 402 395 372 372 364 355 340 340 332 324 324 324 326 329 325 325 321 319 316 316 312 309 306 306 302 300 297 297 285 282 281 281 275 271 268 268 271 277 285 285 300 296 284 284 266 262 258 258 247 246 245 245 229 202 201 201 200 201 205 205 218 227 234 234 246 251 259 259 260 261 262 262 270 275 280 280 292 297 302 302 293 299 314 351 351 373 391 419 419 429 421 377 377 376 375 372 372 361 350 333 333 337 342 352 352 357 364 391 391 412 435 476 476 493 492 498 498 506 527 532 532 536 541 553 553 558 563 567 567 569 571 570 570 569 565 552 552 543 532 506 506 491 479 477 477 500 514 527 527 549 558 561 561 565 564 561 561 546 544 542 542 538 546 555 555 572 577 582 582 595 598 600 600 604 605 605 605 605 604 605 605 611 620 624 624 625 624 622 622 618 616 613 613 605 602 594 594 587 583 581 581 580 581 583 583 588 590 591 589 589 587 584 579 579 576 572 563 563 558 553 543 543 539 532 516 516 506 497 480 480 471 464 437 437 428 418 394 394 391 388 374 374 361 347 367 367 422 443 476 476 489 490 488 488 484 479 469 469 463 460 462 462 462 463 463 463 464 465 469 469 481 490 507 507 518 517 516 516 510 507 504 504 487 478 459 459 451 453 464 464 487 499 506 506 516 518 513 513 478 458 438 438 447 465 483 483 505 505 504 504 478 466 453 453 429 417 406 406 387 378 373 373 359 356 361 361 384 395 407 407 424 428 432 431 431 426 415 403 403 397 393 381 381 373 365 347 347 338 326 319 319 321 323 340 340 351 362 384 384 388 392 387 387 384 382 380 380 381 381 380 380 378 376 362 362 357 352 347 347 345 343 338 338 337 335 328 328 320 316 304 304 297 287 276 276 259 252 244 244 229 223 224 224 226 227 224 224 218 214 210 210 201 197 198 198 213 225 237 237 287 300 313 313 331 336 344 344 344 341 336 336 323 315 305 305 287 280 275 275 254 247 240 240 234 239 244 244 271 282 293 293 316 321 321 321 319 316 316 321 321 326 332 343 343 349 351 352 352 355 358 363 363 364 365 363 363 361 355 349 349 347 347 346 346 347 352 352 352 345 343 342 342 342 341 321 321 317 312 303 303 299 294 278 278 270 273 286 286 295 295 296 296 299 300 305 305 304 303 301 301 296 294 290 290 282 278 274 274 259 254 249 249 247 247 246 246 251 251 252 252 247 240 238 238 231 227 224 224 218 215 215 215 212 209 201 201 195 194 192 192 186 185 183 183 183 183 183 183 182 181 180 180 175 172 170 170 165 163 163 163 162 160 158 159 159 164 170 185 185 188 192 195 195 199 203 212 212 218 220 222 222 221 221 221 221 223 225 227 227 227 228 225 225 224 223 221 221 219 214 209 209 206 203 196 196 193 186 173 173 167 170 204 204 219 234 255 255 260 266 266 266 263 260 253 253 241 236 231 231 227 227 226 226 230 231 233 233 237 235 232 232 225 222 220
232 238 238 249 253 260 260 276 286 303 303 312 313 314 314 317 319 321 321 326 329 333 333 349 356 356 356 347 337 327 327 310 303 311 311 346 361 376 376 407 422 437 448 448 444 440 426 426 399 384 356 356 343 338 330 330 328 330 343 343 354 383 409 409 419 429 444 444 448 453 456 456 456 451 440 440 433 423 405 405 397 394 378 378 366 357 340 340 337 333 331 331 331 331 333 333 333 333 324 324 320 318 315 315 311 309 306 306 302 299 296 296 287 285 283 283 278 275 272 272 264 259 261 261 270 275 272 272 263 258 253 253 243 236 229 229 208 198 198 198 199 201 207 207 223 232 239 239 252 258 271 271 278 276 273 273 277 284 292 292 311 318 326 326 310 310 323 354 354 372 387 406 406 410 403 366 366 347 328 312 312 314 316 333 333 344 355 374 374 392 406 435 435 451 465 486 486 492 486 494 494 508 532 547 547 550 554 561 561 565 570 577 577 579 581 581 581 579 575 565 565 559 549 520 520 501 497 503 503 530 547 562 562 585 593 596 596 599 598 595 595 577 569 561 561 544 541 538 538 554 558 563 563 575 578 580 580 583 584 586 586 592 595 599 599 609 618 622 622 626 626 625 625 620 618 616 616 609 605 597 597 589 585 579 579 575 578 582 582 587 588 588 584 584 583 581 575 575 575 574 576 576 574 572 560 560 554 546 528 528 519 508 486 486 475 464 433 433 434 436 436 436 426 415 372 372 360 348 382 382 438 457 484 484 492 491 486 486 482 477 471 471 471 476 482 482 485 488 490 490 492 494 497 497 504 508 520 520 528 528 529 529 528 526 524 524 519 515 509 509 505 503 506 506 513 516 519 519 522 523 517 517 479 455 431 431 414 431 449 449 473 473 474 474 458 450 443 443 428 420 415 415 403 397 391 391 378 359 347 347 338 353 368 368 399 404 409 412 412 409 398 384 384 376 368 352 352 345 339 326 326 319 312 313 313 320 327 346 346 356 366 384 384 388 392 392 392 393 392 391 391 390 390 391 391 390 389 380 380 377 373 367 367 365 362 353 353 348 343 329 329 313 305 294 294 290 290 291 291 289 282 274 274 245 232 228 228 220 216 213 213 205 200 198 198 195 196 196 196 226 250 274 274 309 319 329 329 345 349 352 352 347 342 337 337 328 323 319 319 308 301 293 293 256 246 236 236 230 238 246 246 277 289 302 302 320 323 322 322 315 310 309 313 313 319 322 328 328 334 337 342 342 346 351 359 359 362 365 364 364 361 357 357 357 358 357 354 354 351 352 356 356 358 353 342 342 337 332 325 325 320 315 302 302 296 290 284 284 288 295 307 307 312 313 313 313 311 308 298 298 295 292 291 291 288 286 283 283 277 274 270 270 263 265 268 268 272 273 274 274 274 271 268 268 258 248 243 243 235 232 230 230 227 225 222 222 214 208 198 198 192 189 185 185 179 179 179 179 179 178 175 175 174 175 175 175 174 172 171 171 168 167 165 165 160 158 155 155 155 156 158 168 168 172 176 196 196 204 207 212 212 214 214 214 214 213 212 211 211 210 210 212 212 214 217 220 220 221 222 219 219 216 210 204 204 200 195 185 185 180 174 170 170 173 189 233 233 246 260 281 281 287 294 292 292 287 281 266 266 254 250 245 245 240 238 236 236 232 233 235 235 239 240 239 239 235 233 231
232 238 238 249 253 260 260 276 286 303 303 312 313 314 314 317 319 321 321 326 329 333 333 349 356 356 356 347 337 327 327 310 303 311 311 346 361 376 376 407 422 437 448 448 444 440 426 426 399 384 356 356 343 338 330 330 328 330 343 343 354 383 409 409 419 429 444 444 448 453 456 456 456 451 440 440 433 423 405 405 397 394 378 378 366 357 340 340 337 333 331 331 331 331 333 333 333 333 324 324 320 318 315 315 311 309 306 306 302 299 296 296 287 285 283 283 278 275 272 272 264 259 261 261 270 275 272 272 263 258 253 253 243 236 229 229 208 198 198 198 199 201 207 207 223 232 239 239 252 258 271 271 278 276 273 273 277 284 292 292 311 318 326 326 310 310 323 354 354 372 387 406 406 410 403 366 366 347 328 312 312 314 316 333 333 344 355 374 374 392 406 435 435 451 465 486 486 492 486 494 494 508 532 547 547 550 554 561 561 565 570 577 577 579 581 581 581 579 575 565 565 559 549 520 520 501 497 503 503 530 547 562 562 585 593 596 596 599 598 595 595 577 569 561 561 544 541 538 538 554 558 563 563 575 578 580 580 583 584 586 586 592 595 599 599 609 618 622 622 626 626 625 625 620 618 616 616 609 605 597 597 589 585 579 579 575 578 582 582 587 588 588 584 584 583 581 575 575 575 574 576 576 574 572 560 560 554 546 528 528 519 508 486 486 475 464 433 433 434 436 436 436 426 415 372 372 360 348 382 382 438 457 484 484 492 491 486 486 482 477 471 471 471 476 482 482 485 488 490 490 492 494 497 497 504 508 520 520 528 528 529 529 528 526 524 524 519 515 509 509 505 503 506 506 513 516 519 519 522 523 517 517 479 455 431 431 414 431 449 449 473 473 474 474 458 450 443 443 428 420 415 415 403 397 391 391 378 359 347 347 338 353 368 368 399 404 409 412 412 409 398 384 384 376 368 352 352 345 339 326 326 319 312 313 313 320 327 346 346 356 366 384 384 388 392 392 392 393 392 391 391 390 390 391 391 390 389 380 380 377 373 367 367 365 362 353 353 348 343 329 329 313 305 294 294 290 290 291 291 289 282 274 274 245 232 228 228 220 216 213 213 205 200 198 198 195 196 196 196 226 250 274 274 309 319 329 329 345 349 352 352 347 342 337 337 328 323 319 319 308 301 293 293 256 246 236 236 230 238 246 246 277 289 302 302 320 323 322 322 315 310 309 313 313 319 322 328 328 334 337 342 342 346 351 359 359 362 365 364 364 361 357 357 357 358 357 354 354 351 352 356 356 358 353 342 342 337 332 325 325 320 315 302 302 296 290 284 284 288 295 307 307 312 313 313 313 311 308 298 298 295 292 291 291 288 286 283 283 277 274 270 270 263 265 268 268 272 273 274 274 274 271 268 268 258 248 243 243 235 232 230 230 227 225 222 222 214 208 198 198 192 189 185 185 179 179 179 179 179 178 175 175 174 175 175 175 174 172 171 171 168 167 165 165 160 158 155 155 155 156 158 168 168 172 176 196 196 204 207 212 212 214 214 214 214 213 212 211 211 210 210 212 212 214 217 220 220 221 222 219 219 216 210 204 204 200 195 185 185 180 174 170 170 173 189 233 233 246 260 281 281 287 294 292 292 287 281 266 266 254 250 245 245 240 238 236 236 232 233 235 235 239 240 239 239 235 233 231
232 238 238 249 253 260 260 276 286 303 303 312 313 314 314 317 319 321 321 326 329 333 333 349 356 356 356 347 337 327 327 310 303 311 311 346 361 376 376 407 422 437 448 448 444 440 426 426 399 384 356 356 343 338 330 330 328 330 343 343 354 383 409 409 419 429 444 444 448 453 456 456 456 451 440 440 433 423 405 405 397 394 378 378 366 357 340 340 337 333 331 331 331 331 333 333 333 333 324 324 320 318 315 315 311 309 306 306 302 299 296 296 287 285 283 283 278 275 272 272 264 259 261 261 270 275 272 272 263 258 253 253 243 236 229 229 208 198 198 198 199 201 207 207 223 232 239 239 252 258 271 271 278 276 273 273 277 284 292 292 311 318 326 326 310 310 323 354 354 372 387 406 406 410 403 366 366 347 328 312 312 314 316 333 333 344 355 374 374 392 406 435 435 451 465 486 486 492 486 494 494 508 532 547 547 550 554 561 561 565 570 577 577 579 581 581 581 579 575 565 565 559 549 520 520 501 497 503 503 530 547 562 562 585 593 596 596 599 598 595 595 577 569 561 561 544 541 538 538 554 558 563 563 575 578 580 580 583 584 586 586 592 595 599 599 609 618 622 622 626 626 625 625 620 618 616 616 609 605 597 597 589 585 579 579 575 578 582 582 587 588 588 584 584 583 581 575 575 575 574 576 576 574 572 560 560 554 546 528 528 519 508 486 486 475 464 433 433 434 436 436 436 426 415 372 372 360 348 382 382 438 457 484 484 492 491 486 486 482 477 471 471 471 476 482 482 485 488 490 490 492 494 497 497 504 508 520 520 528 528 529 529 528 526 524 524 519 515 509 509 505 503 506 506 513 516 519 519 522 523 517 517 479 455 431 431 414 431 449 449 473 473 474 474 458 450 443 443 428 420 415 415 403 397 391 391 378 359 347 347 338 353 368 368 399 404 409 412 412 409 398 384 384 376 368 352 352 345 339 326 326 319 312 313 313 320 327 346 346 356 366 384 384 388 392 392 392 393 392 391 391 390 390 391 391 390 389 380 380 377 373 367 367 365 362 353 353 348 343 329 329 313 305 294 294 290 290 291 291 289 282 274 274 245 232 228 228 220 216 213 213 205 200 198 198 195 196 196 196 226 250 274 274 309 319 329 329 345 349 352 352 347 342 337 337 328 323 319 319 308 301 293 293 256 246 236 236 230 238 246 246 277 289 302 302 320 323 322 322 315 310 309 313 313 319 322 328 328 334 337 342 342 346 351 359 359 362 365 364 364 361 357 357 357 358 357 354 354 351 352 356 356 358 353 342 342 337 332 325 325 320 315 302 302 296 290 284 284 288 295 307 307 312 313 313 313 311 308 298 298 295 292 291 291 288 286 283 283 277 274 270 270 263 265 268 268 272 273 274 274 274 271 268 268 258 248 243 243 235 232 230 230 227 225 222 222 214 208 198 198 192 189 185 185 179 179 179 179 179 178 175 175 174 175 175 175 174 172 171 171 168 167 165 165 160 158 155 155 155 156 158 168 168 172 176 196 196 204 207 212 212 214 214 214 214 213 212 211 211 210 210 212 212 214 217 220 220 221 222 219 219 216 210 204 204 200 195 185 185 180 174 170 170 173 189 233 233 246 260 281 281 287 294 292 292 287 281 266 266 254 250 245 245 240 238 236 236 232 233 235 235 239 240 239 239 235 233 231
237 244 244 255 260 266 266 283 294 311 311 319 321 324 324 326 327 328 328 331 334 337 337 350 354 354 354 347 339 327 327 308 302 313 313 353 369 386 386 416 426 436 444 444 441 438 418 418 384 370 345 345 335 329 322 322 322 330 351 351 364 392 415 415 426 437 453 453 457 462 462 462 460 451 437 437 430 420 397 397 384 374 353 353 342 340 339 339 341 344 340 340 339 338 335 335 334 333 323 323 319 317 315 315 312 310 308 308 303 300 297 297 288 286 285 285 281 278 274 274 267 263 260 260 261 266 266 266 263 257 251 251 237 232 226 226 206 198 198 198 201 205 210 210 224 233 240 240 254 260 271 271 277 280 284 284 286 290 295 295 318 325 332 332 319 312 321 346 346 362 375 390 390 392 383 354 354 336 318 302 302 311 321 345 345 357 369 390 390 403 410 431 431 445 462 485 485 490 481 486 486 500 532 553 553 557 562 569 569 572 576 579 579 580 581 582 582 581 578 569 569 564 552 522 522 505 509 524 524 548 562 574 574 592 598 600 600 601 599 595 595 575 565 555 555 532 537 543 543 558 564 571 571 579 581 582 582 583 584 586 586 590 593 597 597 606 615 619 619 621 621 621 621 617 616 614 614 606 602 594 594 585 580 574 574 570 574 578 578 584 586 585 581 581 581 580 577 577 577 578 580 580 579 577 565 565 559 552 535 535 525 516 494 494 482 472 461 461 462 463 453 453 437 421 376 376 365 353 382 382 426 439 463 463 473 478 482 482 480 477 474 474 475 484 493 493 497 501 505 505 507 509 512 512 519 523 530 530 533 532 531 531 529 527 525 525 520 518 516 516 515 514 514 514 515 516 516 516 516 514 507 507 475 454 433 433 404 417 431 431 454 457 461 461 455 450 447 447 438 432 427 427 415 408 402 402 389 371 360 360 332 343 354 354 384 389 395 406 406 404 395 380 380 370 362 346 346 338 332 321 321 315 307 312 312 320 328 346 346 355 365 379 379 382 385 385 385 385 384 382 382 381 382 383 383 384 384 386 386 384 381 376 376 372 367 355 355 347 339 323 323 315 316 319 319 320 320 319 319 314 310 306 306 280 261 255 255 243 237 231 231 215 206 201 201 195 194 199 199 239 259 280 280 305 317 330 330 346 350 355 355 353 350 346 346 338 334 329 329 316 307 295 295 253 243 232 232 230 242 255 255 280 290 301 301 319 323 322 322 314 306 302 302 302 307 312 322 322 332 336 339 339 342 345 350 350 352 355 355 355 353 352 355 355 356 356 355 355 353 353 353 353 353 350 337 337 334 331 322 322 318 314 302 302 297 291 298 298 302 307 317 317 321 321 318 318 313 308 294 294 291 288 286 286 283 281 280 280 275 272 269 269 272 275 278 278 280 281 282 282 278 276 273 273 264 254 249 249 239 235 234 234 231 229 224 224 211 204 193 193 187 187 187 187 191 191 192 192 188 186 180 180 174 171 171 171 171 170 170 170 168 167 165 165 160 158 155 154 154 154 155 164 164 167 171 192 192 202 204 206 206 206 207 208 208 207 207 204 204 201 200 202 202 206 210 217 217 217 218 217 217 216 211 202 202 197 192 179 179 171 168 173 173 181 194 229 229 243 257 282 282 290 298 307 307 304 300 288 288 273 264 255 255 248 245 242 242 236 236 235 235 239 240 241 241 241 239 236
240 247 247 260 267 273 273 288 297 305 305 321 326 332 332 335 335 336 336 341 343 346 346 360 365 364 364 353 342 328 328 307 300 310 310 355 371 388 388 414 424 435 442 442 438 434 406 406 370 358 337 337 328 322 318 318 322 333 355 355 366 385 404 404 416 429 451 451 457 464 462 462 457 444 428 428 420 412 393 393 381 365 342 342 335 340 362 362 361 359 349 349 346 343 337 337 334 331 322 322 319 317 315 315 313 311 309 309 303 301 298 298 290 290 289 289 284 281 277 277 271 270 265 265 258 257 259 259 255 250 245 245 231 225 219 219 205 198 198 198 202 207 212 212 225 233 239 239 251 256 264 264 271 279 288 288 297 305 314 314 328 330 332 332 324 321 327 347 347 360 371 380 380 377 365 330 330 317 303 297 297 306 315 338 338 348 359 371 371 377 386 413 413 432 456 488 488 497 483 473 473 479 517 552 552 559 567 575 575 577 579 580 580 580 578 577 577 576 574 567 567 562 549 525 525 514 524 547 547 567 574 582 582 594 597 597 597 594 590 585 585 564 554 543 543 525 537 550 550 562 568 575 575 580 581 582 582 583 582 584 584 589 592 595 595 602 609 612 612 616 616 617 617 615 613 611 611 603 599 590 590 580 574 568 568 565 569 574 574 580 582 581 577 577 577 577 578 578 579 580 580 580 580 580 571 571 566 559 545 545 537 527 508 508 498 493 484 484 480 476 462 462 445 427 381 381 369 357 371 371 402 412 440 440 458 471 483 483 481 480 478 478 479 487 498 498 503 509 516 516 520 524 527 527 533 536 536 536 532 531 529 529 525 524 522 522 517 515 513 513 510 508 506 506 502 500 499 499 496 495 488 488 462 447 432 432 398 405 413 413 437 444 452 452 457 456 453 453 446 441 435 435 423 417 411 411 397 377 365 365 329 332 336 336 359 368 377 399 399 398 392 378 378 368 360 344 344 337 332 320 320 313 304 311 311 319 328 348 348 356 364 374 374 374 374 371 371 370 369 366 366 365 365 367 367 369 372 384 384 384 384 376 376 372 367 358 358 353 348 344 344 342 342 342 342 342 341 340 340 337 333 328 328 311 299 292 292 270 256 243 243 220 210 204 204 196 195 202 202 235 253 271 271 304 316 329 329 348 354 360 360 360 359 357 357 350 345 338 338 320 310 297 297 253 243 233 233 228 238 248 248 270 279 289 289 305 308 308 308 305 302 296 294 294 299 308 321 321 330 334 335 335 335 334 338 338 340 342 344 344 343 345 351 351 355 356 358 358 358 356 349 349 345 343 333 333 331 329 320 320 315 310 299 299 299 299 313 313 317 320 326 326 328 324 315 315 310 305 293 293 290 286 284 284 280 278 276 276 272 270 271 271 280 282 284 284 287 287 288 288 284 282 280 280 272 261 255 255 245 241 241 241 236 229 221 221 205 197 187 187 194 199 204 204 205 203 200 200 193 190 185 185 178 173 171 171 168 167 167 167 167 167 166 166 162 161 159 154 154 154 153 155 155 159 164 184 184 192 195 200 200 202 203 204 204 204 203 200 200 197 196 197 197 201 205 212 212 213 215 216 216 215 210 201 201 195 189 174 174 165 166 179 179 191 199 225 225 239 253 280 280 290 301 314 314 313 312 303 303 288 278 268 268 257 252 247 247 241 238 235 235 237 238 239 239 241 242 242
240 247 247 260 267 273 273 288 297 305 305 321 326 332 332 335 335 336 336 341 343 346 346 360 365 364 364 353 342 328 328 307 300 310 310 355 371 388 388 414 424 435 442 442 438 434 406 406 370 358 337 337 328 322 318 318 322 333 355 355 366 385 404 404 416 429 451 451 457 464 462 462 457 444 428 428 420 412 393 393 381 365 342 342 335 340 362 362 361 359 349 349 346 343 337 337 334 331 322 322 319 317 315 315 313 311 309 309 303 301 298 298 290 290 289 289 284 281 277 277 271 270 265 265 258 257 259 259 255 250 245 245 231 225 219 219 205 198 198 198 202 207 212 212 225 233 239 239 251 256 264 264 271 279 288 288 297 305 314 314 328 330 332 332 324 321 327 347 347 360 371 380 380 377 365 330 330 317 303 297 297 306 315 338 338 348 359 371 371 377 386 413 413 432 456 488 488 497 483 473 473 479 517 552 552 559 567 575 575 577 579 580 580 580 578 577 577 576 574 567 567 562 549 525 525 514 524 547 547 567 574 582 582 594 597 597 597 594 590 585 585 564 554 543 543 525 537 550 550 562 568 575 575 580 581 582 582 583 582 584 584 589 592 595 595 602 609 612 612 616 616 617 617 615 613 611 611 603 599 590 590 580 574 568 568 565 569 574 574 580 582 581 577 577 577 577 578 578 579 580 580 580 580 580 571 571 566 559 545 545 537 527 508 508 498 493 484 484 480 476 462 462 445 427 381 381 369 357 371 371 402 412 440 440 458 471 483 483 481 480 478 478 479 487 498 498 503 509 516 516 520 524 527 527 533 536 536 536 532 531 529 529 525 524 522 522 517 515 513 513 510 508 506 506 502 500 499 499 496 495 488 488 462 447 432 432 398 405 413 413 437 444 452 452 457 456 453 453 446 441 435 435 423 417 411 411 397 377 365 365 329 332 336 336 359 368 377 399 399 398 392 378 378 368 360 344 344 337 332 320 320 313 304 311 311 319 328 348 348 356 364 374 374 374 374 371 371 370 369 366 366 365 365 367 367 369 372 384 384 384 384 376 376 372 367 358 358 353 348 344 344 342 342 342 342 342 341 340 340 337 333 328 328 311 299 292 292 270 256 243 243 220 210 204 204 196 195 202 202 235 253 271 271 304 316 329 329 348 354 360 360 360 359 357 357 350 345 338 338 320 310 297 297 253 243 233 233 228 238 248 248 270 279 289 289 305 308 308 308 305 302 296 294 294 299 308 321 321 330 334 335 335 335 334 338 338 340 342 344 344 343 345 351 351 355 356 358 358 358 356 349 349 345 343 333 333 331 329 320 320 315 310 299 299 299 299 313 313 317 320 326 326 328 324 315 315 310 305 293 293 290 286 284 284 280 278 276 276 272 270 271 271 280 282 284 284 287 287 288 288 284 282 280 280 272 261 255 255 245 241 241 241 236 229 221 221 205 197 187 187 194 199 204 204 205 203 200 200 193 190 185 185 178 173 171 171 168 167 167 167 167 167 166 166 162 161 159 154 154 154 153 155 155 159 164 184 184 192 195 200 200 202 203 204 204 204 203 200 200 197 196 197 197 201 205 212 212 213 215 216 216 215 210 201 201 195 189 174 174 165 166 179 179 191 199 225 225 239 253 280 280 290 301 314 314 313 312 303 303 288 278 268 268 257 252 247 247 241 238 235 235 237 238 239 239 241 242 242
242 248 248 264 274 280 280 291 295 302 302 321 329 338 338 342 345 348 348 361 364 367 367 386 390 384 384 362 345 331 331 307 298 303 303 346 362 379 379 405 417 429 439 439 431 422 390 390 363 352 332 332 324 318 318 318 325 336 353 353 359 371 390 390 403 416 444 444 451 458 452 452 444 428 413 413 406 400 381 381 368 354 339 339 340 354 378 378 373 368 356 356 353 349 340 340 336 332 321 321 318 316 314 314 313 310 307 307 302 299 296 296 293 292 289 289 284 281 280 280 275 271 265 265 255 250 250 250 245 243 240 240 228 222 216 216 206 200 200 200 204 209 212 212 222 228 233 233 243 248 254 254 267 275 283 283 307 315 324 324 333 331 328 328 320 321 328 346 346 356 361 361 361 355 345 310 310 302 293 295 295 298 302 316 316 324 332 345 345 362 380 423 423 448 469 496 496 502 490 471 471 464 494 537 537 551 565 575 575 575 576 572 572 569 565 566 566 569 569 564 564 558 549 540 540 539 549 569 569 584 589 590 590 591 590 587 587 580 575 568 568 550 540 529 529 522 535 549 549 563 567 572 572 576 576 577 577 579 578 578 578 583 588 592 592 599 606 610 610 615 615 616 616 613 611 609 609 601 597 587 587 577 571 563 563 556 559 567 567 577 579 579 576 576 575 574 576 576 577 579 580 580 581 582 577 577 574 568 555 555 547 539 525 525 518 512 494 494 488 481 462 462 447 431 389 389 377 365 373 373 418 432 460 460 475 480 485 485 484 484 485 485 486 494 506 506 512 518 527 527 531 536 538 538 539 538 534 534 527 524 521 521 517 515 513 513 510 509 507 507 501 497 491 491 480 474 472 472 467 465 460 460 442 433 423 423 392 395 398 398 424 433 443 443 458 461 459 459 452 448 443 443 433 427 419 419 402 381 368 368 335 329 322 322 344 358 373 389 389 388 384 374 374 366 357 343 343 337 332 321 321 314 302 306 306 317 328 348 348 354 361 362 362 360 357 352 352 351 349 346 346 347 348 351 351 354 361 377 377 377 377 377 377 377 376 372 372 370 368 368 368 366 366 365 365 364 362 360 360 355 350 345 345 331 319 308 308 279 260 243 243 216 206 201 201 195 194 205 205 243 259 275 275 306 318 330 330 350 356 362 362 363 363 362 362 357 353 344 344 326 316 304 304 257 245 233 233 223 227 231 231 252 260 269 269 283 286 284 284 280 277 281 296 296 307 311 318 318 325 329 328 328 326 323 322 322 324 327 326 326 329 337 348 348 354 357 361 361 360 356 348 348 344 340 327 327 324 321 316 316 312 308 304 304 308 312 324 324 328 329 328 328 325 320 310 310 305 301 290 290 287 284 282 282 279 277 275 275 273 273 275 275 281 284 287 287 290 290 291 291 287 285 282 282 277 269 262 262 249 243 240 240 229 222 213 213 197 190 198 198 217 219 221 221 216 212 207 207 200 196 190 190 185 181 177 177 172 170 169 169 166 165 165 165 164 164 163 156 156 155 154 153 153 156 159 177 177 184 187 193 193 196 197 199 199 200 199 196 196 194 193 194 194 198 202 210 210 212 214 213 213 213 208 200 200 195 188 172 172 163 166 185 185 201 210 237 237 248 259 284 284 294 304 316 316 318 321 313 313 298 288 278 278 263 258 253 253 245 242 239 239 235 236 237 237 238 239 240
242 248 248 264 274 280 280 291 295 302 302 321 329 338 338 342 345 348 348 361 364 367 367 386 390 384 384 362 345 331 331 307 298 303 303 346 362 379 379 405 417 429 439 439 431 422 390 390 363 352 332 332 324 318 318 318 325 336 353 353 359 371 390 390 403 416 444 444 451 458 452 452 444 428 413 413 406 400 381 381 368 354 339 339 340 354 378 378 373 368 356 356 353 349 340 340 336 332 321 321 318 316 314 314 313 310 307 307 302 299 296 296 293 292 289 289 284 281 280 280 275 271 265 265 255 250 250 250 245 243 240 240 228 222 216 216 206 200 200 200 204 209 212 212 222 228 233 233 243 248 254 254 267 275 283 283 307 315 324 324 333 331 328 328 320 321 328 346 346 356 361 361 361 355 345 310 310 302 293 295 295 298 302 316 316 324 332 345 345 362 380 423 423 448 469 496 496 502 490 471 471 464 494 537 537 551 565 575 575 575 576 572 572 569 565 566 566 569 569 564 564 558 549 540 540 539 549 569 569 584 589 590 590 591 590 587 587 580 575 568 568 550 540 529 529 522 535 549 549 563 567 572 572 576 576 577 577 579 578 578 578 583 588 592 592 599 606 610 610 615 615 616 616 613 611 609 609 601 597 587 587 577 571 563 563 556 559 567 567 577 579 579 576 576 575 574 576 576 577 579 580 580 581 582 577 577 574 568 555 555 547 539 525 525 518 512 494 494 488 481 462 462 447 431 389 389 377 365 373 373 418 432 460 460 475 480 485 485 484 484 485 485 486 494 506 506 512 518 527 527 531 536 538 538 539 538 534 534 527 524 521 521 517 515 513 513 510 509 507 507 501 497 491 491 480 474 472 472 467 465 460 460 442 433 423 423 392 395 398 398 424 433 443 443 458 461 459 459 452 448 443 443 433 427 419 419 402 381 368 368 335 329 322 322 344 358 373 389 389 388 384 374 374 366 357 343 343 337 332 321 321 314 302 306 306 317 328 348 348 354 361 362 362 360 357 352 352 351 349 346 346 347 348 351 351 354 361 377 377 377 377 377 377 377 376 372 372 370 368 368 368 366 366 365 365 364 362 360 360 355 350 345 345 331 319 308 308 279 260 243 243 216 206 201 201 195 194 205 205 243 259 275 275 306 318 330 330 350 356 362 362 363 363 362 362 357 353 344 344 326 316 304 304 257 245 233 233 223 227 231 231 252 260 269 269 283 286 284 284 280 277 281 296 296 307 311 318 318 325 329 328 328 326 323 322 322 324 327 326 326 329 337 348 348 354 357 361 361 360 356 348 348 344 340 327 327 324 321 316 316 312 308 304 304 308 312 324 324 328 329 328 328 325 320 310 310 305 301 290 290 287 284 282 282 279 277 275 275 273 273 275 275 281 284 287 287 290 290 291 291 287 285 282 282 277 269 262 262 249 243 240 240 229 222 213 213 197 190 198 198 217 219 221 221 216 212 207 207 200 196 190 190 185 181 177 177 172 170 169 169 166 165 165 165 164 164 163 156 156 155 154 153 153 156 159 177 177 184 187 193 193 196 197 199 199 200 199 196 196 194 193 194 194 198 202 210 210 212 214 213 213 213 208 200 200 195 188 172 172 163 166 185 185 201 210 237 237 248 259 284 284 294 304 316 316 318 321 313 313 298 288 278 278 263 258 253 253 245 242 239 239 235 236 237 237 238 239 240
244 255 255 279 292 294 294 297 298 306 306 320 327 334 334 345 351 358 358 375 382 390 390 412 415 403 403 372 352 337 337 311 300 300 300 329 343 357 357 383 398 414 422 422 412 402 380 380 357 347 330 330 322 316 318 318 326 334 348 348 354 379 404 404 414 425 443 443 446 449 440 440 430 411 396 396 390 383 364 364 351 345 349 349 360 372 383 383 378 372 365 365 361 356 342 342 337 332 319 319 316 314 312 312 309 308 306 306 300 298 296 296 294 290 288 288 285 284 282 282 279 278 269 269 252 244 242 242 236 236 236 236 228 221 213 213 202 200 201 201 204 207 210 210 215 217 225 225 235 237 248 248 262 269 277 277 306 315 324 324 337 332 327 327 308 306 314 329 329 336 337 335 335 331 323 295 295 292 289 303 303 306 310 308 308 314 321 343 343 373 394 437 437 460 476 501 501 509 502 478 478 460 481 525 525 540 556 566 566 566 566 552 552 544 539 553 553 562 564 564 564 562 559 561 561 566 575 590 590 598 599 596 596 590 586 578 578 564 557 551 551 536 527 517 517 516 531 547 547 560 562 565 565 566 565 565 565 564 563 567 567 577 584 590 590 600 608 611 611 615 615 614 614 609 607 604 604 597 593 585 585 575 570 563 563 551 546 557 557 573 577 579 578 578 575 572 573 573 574 576 581 581 582 584 581 581 578 574 562 562 555 549 536 536 530 523 498 498 490 481 458 458 443 428 392 392 381 370 387 387 439 454 476 476 482 479 479 479 482 486 494 494 497 509 521 521 526 531 539 539 541 544 543 543 538 534 524 524 517 514 510 510 505 504 502 502 500 499 497 497 490 485 478 478 460 449 444 444 434 429 425 425 413 408 402 402 382 386 390 390 415 424 434 434 454 459 459 459 457 454 448 448 435 427 418 418 398 376 364 364 341 331 321 321 330 342 355 373 373 375 377 371 371 365 358 344 344 338 333 321 321 315 302 300 300 311 323 343 343 346 350 344 344 340 335 328 328 326 326 326 326 327 330 337 337 341 349 369 369 373 377 385 385 386 387 386 386 386 387 388 388 384 384 380 380 376 372 367 367 357 352 346 346 339 326 314 314 283 264 244 244 213 203 199 199 194 193 211 211 254 273 292 292 319 328 337 337 352 356 363 363 365 366 366 366 362 357 349 349 331 322 311 311 264 249 234 234 222 222 223 223 234 240 246 246 259 263 260 260 262 268 279 295 295 301 303 311 311 319 322 322 322 322 321 315 315 313 310 314 314 321 335 348 348 354 358 361 361 359 355 347 347 343 339 326 326 321 315 311 311 311 311 317 317 320 324 331 331 334 333 328 328 323 318 307 307 302 298 288 288 286 283 283 283 281 278 278 278 277 277 278 278 282 284 286 286 289 289 290 290 289 289 288 288 283 273 265 265 251 245 240 240 225 216 207 207 197 196 220 220 231 230 228 228 222 218 214 214 205 202 195 195 189 185 183 183 177 173 171 171 168 167 167 167 163 162 160 157 157 156 154 152 152 153 154 168 168 174 178 186 186 189 191 194 194 196 196 194 194 192 191 192 192 195 198 206 206 209 212 210 210 209 206 199 199 195 188 171 171 162 165 183 183 197 209 240 240 251 262 285 285 293 302 318 318 320 322 318 318 305 297 289 289 271 265 259 259 250 247 243 243 237 236 237 237 239 241 241
244 255 255 279 292 294 294 297 298 306 306 320 327 334 334 345 351 358 358 375 382 390 390 412 415 403 403 372 352 337 337 311 300 300 300 329 343 357 357 383 398 414 422 422 412 402 380 380 357 347 330 330 322 316 318 318 326 334 348 348 354 379 404 404 414 425 443 443 446 449 440 440 430 411 396 396 390 383 364 364 351 345 349 349 360 372 383 383 378 372 365 365 361 356 342 342 337 332 319 319 316 314 312 312 309 308 306 306 300 298 296 296 294 290 288 288 285 284 282 282 279 278 269 269 252 244 242 242 236 236 236 236 228 221 213 213 202 200 201 201 204 207 210 210 215 217 225 225 235 237 248 248 262 269 277 277 306 315 324 324 337 332 327 327 308 306 314 329 329 336 337 335 335 331 323 295 295 292 289 303 303 306 310 308 308 314 321 343 343 373 394 437 437 460 476 501 501 509 502 478 478 460 481 525 525 540 556 566 566 566 566 552 552 544 539 553 553 562 564 564 564 562 559 561 561 566 575 590 590 598 599 596 596 590 586 578 578 564 557 551 551 536 527 517 517 516 531 547 547 560 562 565 565 566 565 565 565 564 563 567 567 577 584 590 590 600 608 611 611 615 615 614 614 609 607 604 604 597 593 585 585 575 570 563 563 551 546 557 557 573 577 579 578 578 575 572 573 573 574 576 581 581 582 584 581 581 578 574 562 562 555 549 536 536 530 523 498 498 490 481 458 458 443 428 392 392 381 370 387 387 439 454 476 476 482 479 479 479 482 486 494 494 497 509 521 521 526 531 539 539 541 544 543 543 538 534 524 524 517 514 510 510 505 504 502 502 500 499 497 497 490 485 478 478 460 449 444 444 434 429 425 425 413 408 402 402 382 386 390 390 415 424 434 434 454 459 459 459 457 454 448 448 435 427 418 418 398 376 364 364 341 331 321 321 330 342 355 373 373 375 377 371 371 365 358 344 344 338 333 321 321 315 302 300 300 311 323 343 343 346 350 344 344 340 335 328 328 326 326 326 326 327 330 337 337 341 349 369 369 373 377 385 385 386 387 386 386 386 387 388 388 384 384 380 380 376 372 367 367 357 352 346 346 339 326 314 314 283 264 244 244 213 203 199 199 194 193 211 211 254 273 292 292 319 328 337 337 352 356 363 363 365 366 366 366 362 357 349 349 331 322 311 311 264 249 234 234 222 222 223 223 234 240 246 246 259 263 260 260 262 268 279 295 295 301 303 311 311 319 322 322 322 322 321 315 315 313 310 314 314 321 335 348 348 354 358 361 361 359 355 347 347 343 339 326 326 321 315 311 311 311 311 317 317 320 324 331 331 334 333 328 328 323 318 307 307 302 298 288 288 286 283 283 283 281 278 278 278 277 277 278 278 282 284 286 286 289 289 290 290 289 289 288 288 283 273 265 265 251 245 240 240 225 216 207 207 197 196 220 220 231 230 228 228 222 218 214 214 205 202 195 195 189 185 183 183 177 173 171 171 168 167 167 167 163 162 160 157 157 156 154 152 152 153 154 168 168 174 178 186 186 189 191 194 194 196 196 194 194 192 191 192 192 195 198 206 206 209 212 210 210 209 206 199 199 195 188 171 171 162 165 183 183 197 209 240 240 251 262 285 285 293 302 318 318 320 322 318 318 305 297 289 289 271 265 259 259 250 247 243 243 237 236 237 237 239 241 241
252 264 264 288 299 300 300 301 301 306 306 312 317 322 322 337 347 357 357 378 394 410 410 432 431 417 417 385 366 351 351 320 305 299 299 306 319 333 333 359 375 391 404 404 401 397 379 379 353 343 325 325 318 314 316 316 323 329 347 347 358 389 416 416 424 432 434 434 433 432 423 423 417 400 381 381 372 365 348 348 338 342 361 361 375 384 388 388 384 380 373 373 367 361 343 343 335 326 316 316 313 311 309 309 308 306 303 303 296 294 292 292 292 287 287 287 287 286 283 283 278 277 273 273 254 239 238 238 235 233 230 230 222 222 222 222 206 199 199 199 202 204 205 205 207 206 212 212 224 230 246 246 260 266 273 273 292 302 313 313 335 332 328 328 297 291 298 311 311 317 316 310 310 305 298 283 283 287 292 316 316 325 335 325 325 324 322 346 346 376 395 436 436 458 475 502 502 512 507 481 481 459 475 515 515 530 546 556 556 555 553 530 530 520 523 548 548 559 562 567 567 568 571 583 583 591 598 608 608 608 606 601 601 589 581 574 574 561 555 552 552 538 525 512 512 515 529 544 544 556 556 556 556 550 547 546 546 551 559 567 567 583 591 595 595 603 609 612 612 614 613 612 612 608 605 601 601 594 589 577 577 564 557 552 552 543 540 553 553 571 577 579 577 577 574 570 567 567 568 570 576 576 579 582 584 584 582 579 569 569 563 556 542 542 535 528 503 503 494 484 462 462 444 425 393 393 383 372 387 387 426 433 445 445 449 450 466 466 482 491 506 506 512 525 535 535 537 540 546 546 545 544 540 540 529 523 511 511 506 502 498 498 492 491 490 490 489 488 484 484 476 471 463 463 442 430 419 419 403 397 393 393 382 380 377 377 369 370 372 372 395 405 416 416 443 451 453 453 454 452 444 444 425 415 404 404 381 359 348 348 328 321 314 314 310 317 324 346 346 356 370 370 370 366 358 344 344 337 333 321 321 313 301 293 293 304 316 332 332 332 333 324 324 321 317 309 309 308 308 310 310 313 317 328 328 334 342 370 370 376 383 392 392 395 398 400 400 400 401 400 400 396 394 385 385 379 371 362 362 348 344 340 340 334 324 314 314 287 270 248 248 214 202 198 198 193 194 224 224 264 282 300 300 324 333 342 342 355 358 364 364 366 365 364 364 359 355 349 349 335 326 316 316 281 265 249 249 228 226 223 223 224 226 229 229 242 244 244 244 256 268 274 283 283 287 291 299 299 304 306 306 306 308 310 308 308 304 299 311 311 320 336 348 348 353 356 358 358 357 354 347 347 343 340 327 327 322 317 318 318 321 324 329 329 331 334 337 337 337 335 328 328 323 318 308 308 303 299 291 291 290 288 289 289 288 284 283 283 281 280 280 280 281 282 284 284 287 288 289 289 290 290 291 291 284 275 268 268 254 247 239 239 219 208 202 202 204 214 232 232 235 233 231 231 224 221 217 217 209 206 198 198 191 187 184 184 179 176 176 176 175 173 172 172 166 164 161 159 159 158 157 154 154 153 151 158 158 163 168 178 178 182 184 187 187 189 189 190 190 189 188 188 188 191 194 203 203 206 209 209 209 208 205 198 198 194 186 170 170 161 163 177 177 189 202 237 237 245 254 275 275 285 295 312 312 317 323 321 321 308 303 297 297 282 275 268 268 257 253 249 249 241 240 240 240 240 241 241
266 275 275 290 296 296 296 297 296 298 298 304 310 316 316 339 351 364 364 390 404 418 418 436 437 425 425 397 381 364 364 329 310 303 303 292 301 311 311 337 357 378 404 404 402 399 378 378 352 341 323 323 315 311 311 311 316 326 351 351 366 396 420 420 420 421 409 409 408 406 410 410 407 394 372 372 359 352 344 344 343 354 376 376 386 392 394 394 392 390 380 380 371 362 336 336 330 323 316 316 313 310 306 306 305 303 300 300 293 292 291 291 290 288 286 286 283 282 281 281 279 278 274 274 256 235 227 227 229 227 224 224 216 215 213 213 203 198 202 202 211 216 216 216 212 208 208 208 215 222 245 245 260 268 277 277 292 301 311 311 334 333 332 332 294 284 285 291 291 297 293 286 286 282 281 286 286 294 303 334 334 346 358 356 356 346 336 349 349 378 394 428 428 446 460 488 488 502 498 473 473 453 470 511 511 526 542 552 552 549 545 514 514 507 518 546 546 555 556 560 560 563 572 594 594 607 613 620 620 614 608 600 600 583 574 567 567 553 547 543 543 519 510 500 500 522 531 540 540 548 546 544 544 533 528 536 536 553 563 572 572 587 594 598 598 605 611 614 614 616 616 615 615 610 607 603 603 596 591 578 578 554 539 532 532 534 543 555 555 572 577 577 572 572 570 567 562 562 562 563 572 572 576 581 584 584 583 580 571 571 565 559 544 544 535 527 503 503 494 485 463 463 447 431 395 395 385 374 378 378 394 398 409 409 416 430 465 465 486 497 517 517 526 537 544 544 545 547 543 543 539 534 527 527 515 509 501 501 493 490 487 487 483 481 478 478 475 473 465 465 455 449 441 441 422 412 407 407 400 398 398 398 393 388 382 382 370 366 361 361 369 382 396 396 431 440 441 441 440 436 427 427 406 394 382 382 360 339 329 329 313 310 306 306 301 301 300 314 314 329 355 364 364 362 355 340 340 332 326 312 312 303 294 288 288 297 306 315 315 314 312 306 306 307 308 297 297 295 299 312 312 321 329 343 343 350 357 381 381 386 392 400 400 404 409 409 409 408 407 402 402 396 391 377 377 367 358 349 349 336 332 328 328 322 314 305 305 285 273 253 253 218 203 198 198 195 197 232 232 264 280 297 297 323 334 345 345 358 361 367 367 367 364 360 360 353 350 347 347 334 325 316 316 289 279 268 268 244 237 229 229 223 223 222 222 226 229 237 237 253 261 264 270 270 274 278 285 285 290 293 295 295 296 297 296 296 294 291 309 309 318 333 345 345 351 353 355 355 354 351 345 345 341 338 327 327 327 327 330 330 332 335 338 338 340 343 341 341 339 337 330 330 324 320 311 311 306 302 292 292 291 290 289 289 286 284 284 284 282 281 280 280 279 280 281 281 283 286 289 289 291 291 290 290 282 270 265 265 252 244 233 233 211 199 201 201 216 229 236 236 235 232 229 229 223 220 217 217 211 206 197 197 190 186 184 184 181 180 181 181 180 178 177 177 171 168 164 160 160 159 158 155 155 154 152 153 153 155 159 168 168 173 177 182 182 184 184 185 185 186 185 185 185 189 193 203 203 206 209 210 210 209 205 199 199 194 185 169 169 162 162 172 172 182 195 227 227 234 242 256 256 267 278 302 302 309 317 323 323 317 313 308 308 296 288 279 279 267 263 258 258 248 245 244 244 242 241 241
266 275 275 290 296 296 296 297 296 298 298 304 310 316 316 339 351 364 364 390 404 418 418 436 437 425 425 397 381 364 364 329 310 303 303 292 301 311 311 337 357 378 404 404 402 399 378 378 352 341 323 323 315 311 311 311 316 326 351 351 366 396 420 420 420 421 409 409 408 406 410 410 407 394 372 372 359 352 344 344 343 354 376 376 386 392 394 394 392 390 380 380 371 362 336 336 330 323 316 316 313 310 306 306 305 303 300 300 293 292 291 291 290 288 286 286 283 282 281 281 279 278 274 274 256 235 227 227 229 227 224 224 216 215 213 213 203 198 202 202 211 216 216 216 212 208 208 208 215 222 245 245 260 268 277 277 292 301 311 311 334 333 332 332 294 284 285 291 291 297 293 286 286 282 281 286 286 294 303 334 334 346 358 356 356 346 336 349 349 378 394 428 428 446 460 488 488 502 498 473 473 453 470 511 511 526 542 552 552 549 545 514 514 507 518 546 546 555 556 560 560 563 572 594 594 607 613 620 620 614 608 600 600 583 574 567 567 553 547 543 543 519 510 500 500 522 531 540 540 548 546 544 544 533 528 536 536 553 563 572 572 587 594 598 598 605 611 614 614 616 616 615 615 610 607 603 603 596 591 578 578 554 539 532 532 534 543 555 555 572 577 577 572 572 570 567 562 562 562 563 572 572 576 581 584 584 583 580 571 571 565 559 544 544 535 527 503 503 494 485 463 463 447 431 395 395 385 374 378 378 394 398 409 409 416 430 465 465 486 497 517 517 526 537 544 544 545 547 543 543 539 534 527 527 515 509 501 501 493 490 487 487 483 481 478 478 475 473 465 465 455 449 441 441 422 412 407 407 400 398 398 398 393 388 382 382 370 366 361 361 369 382 396 396 431 440 441 441 440 436 427 427 406 394 382 382 360 339 329 329 313 310 306 306 301 301 300 314 314 329 355 364 364 362 355 340 340 332 326 312 312 303 294 288 288 297 306 315 315 314 312 306 306 307 308 297 297 295 299 312 312 321 329 343 343 350 357 381 381 386 392 400 400 404 409 409 409 408 407 402 402 396 391 377 377 367 358 349 349 336 332 328 328 322 314 305 305 285 273 253 253 218 203 198 198 195 197 232 232 264 280 297 297 323 334 345 345 358 361 367 367 367 364 360 360 353 350 347 347 334 325 316 316 289 279 268 268 244 237 229 229 223 223 222 222 226 229 237 237 253 261 264 270 270 274 278 285 285 290 293 295 295 296 297 296 296 294 291 309 309 318 333 345 345 351 353 355 355 354 351 345 345 341 338 327 327 327 327 330 330 332 335 338 338 340 343 341 341 339 337 330 330 324 320 311 311 306 302 292 292 291 290 289 289 286 284 284 284 282 281 280 280 279 280 281 281 283 286 289 289 291 291 290 290 282 270 265 265 252 244 233 233 211 199 201 201 216 229 236 236 235 232 229 229 223 220 217 217 211 206 197 197 190 186 184 184 181 180 181 181 180 178 177 177 171 168 164 160 160 159 158 155 155 154 152 153 153 155 159 168 168 173 177 182 182 184 184 185 185 186 185 185 185 189 193 203 203 206 209 210 210 209 205 199 199 194 185 169 169 162 162 172 172 182 195 227 227 234 242 256 256 267 278 302 302 309 317 323 323 317 313 308 308 296 288 279 279 267 263 258 258 248 245 244 244 242 241 241
266 275 275 290 296 296 296 297 296 298 298 304 310 316 316 339 351 364 364 390 404 418 418 436 437 425 425 397 381 364 364 329 310 303 303 292 301 311 311 337 357 378 404 404 402 399 378 378 352 341 323 323 315 311 311 311 316 326 351 351 366 396 420 420 420 421 409 409 408 406 410 410 407 394 372 372 359 352 344 344 343 354 376 376 386 392 394 394 392 390 380 380 371 362 336 336 330 323 316 316 313 310 306 306 305 303 300 300 293 292 291 291 290 288 286 286 283 282 281 281 279 278 274 274 256 235 227 227 229 227 224 224 216 215 213 213 203 198 202 202 211 216 216 216 212 208 208 208 215 222 245 245 260 268 277 277 292 301 311 311 334 333 332 332 294 284 285 291 291 297 293 286 286 282 281 286 286 294 303 334 334 346 358 356 356 346 336 349 349 378 394 428 428 446 460 488 488 502 498 473 473 453 470 511 511 526 542 552 552 549 545 514 514 507 518 546 546 555 556 560 560 563 572 594 594 607 613 620 620 614 608 600 600 583 574 567 567 553 547 543 543 519 510 500 500 522 531 540 540 548 546 544 544 533 528 536 536 553 563 572 572 587 594 598 598 605 611 614 614 616 616 615 615 610 607 603 603 596 591 578 578 554 539 532 532 534 543 555 555 572 577 577 572 572 570 567 562 562 562 563 572 572 576 581 584 584 583 580 571 571 565 559 544 544 535 527 503 503 494 485 463 463 447 431 395 395 385 374 378 378 394 398 409 409 416 430 465 465 486 497 517 517 526 537 544 544 545 547 543 543 539 534 527 527 515 509 501 501 493 490 487 487 483 481 478 478 475 473 465 465 455 449 441 441 422 412 407 407 400 398 398 398 393 388 382 382 370 366 361 361 369 382 396 396 431 440 441 441 440 436 427 427 406 394 382 382 360 339 329 329 313 310 306 306 301 301 300 314 314 329 355 364 364 362 355 340 340 332 326 312 312 303 294 288 288 297 306 315 315 314 312 306 306 307 308 297 297 295 299 312 312 321 329 343 343 350 357 381 381 386 392 400 400 404 409 409 409 408 407 402 402 396 391 377 377 367 358 349 349 336 332 328 328 322 314 305 305 285 273 253 253 218 203 198 198 195 197 232 232 264 280 297 297 323 334 345 345 358 361 367 367 367 364 360 360 353 350 347 347 334 325 316 316 289 279 268 268 244 237 229 229 223 223 222 222 226 229 237 237 253 261 264 270 270 274 278 285 285 290 293 295 295 296 297 296 296 294 291 309 309 318 333 345 345 351 353 355 355 354 351 345 345 341 338 327 327 327 327 330 330 332 335 338 338 340 343 341 341 339 337 330 330 324 320 311 311 306 302 292 292 291 290 289 289 286 284 284 284 282 281 280 280 279 280 281 281 283 286 289 289 291 291 290 290 282 270 265 265 252 244 233 233 211 199 201 201 216 229 236 236 235 232 229 229 223 220 217 217 211 206 197 197 190 186 184 184 181 180 181 181 180 178 177 177 171 168 164 160 160 159 158 155 155 154 152 153 153 155 159 168 168 173 177 182 182 184 184 185 185 186 185 185 185 189 193 203 203 206 209 210 210 209 205 199 199 194 185 169 169 162 162 172 172 182 195 227 227 234 242 256 256 267 278 302 302 309 317 323 323 317 313 308 308 296 288 279 279 267 263 258 258 248 245 244 244 242 241 241
275 278 278 282 282 282 282 282 284 293 293 306 314 323 323 352 366 380 380 398 403 408 408 423 428 423 423 405 391 372 372 335 316 308 308 287 292 298 298 335 357 379 407 407 401 395 376 376 353 341 320 320 312 309 312 312 320 332 359 359 374 400 415 415 412 408 385 385 385 386 397 397 394 382 364 364 354 345 344 344 353 367 387 387 394 399 403 403 401 398 381 381 370 358 331 331 327 323 317 317 314 310 306 306 302 300 297 297 292 292 292 292 289 287 286 286 285 286 283 283 277 273 269 269 253 232 221 221 222 222 221 221 212 208 204 204 198 197 205 205 220 228 228 228 225 221 217 217 214 217 240 240 260 270 280 280 302 312 323 323 340 341 343 343 302 287 279 272 272 273 273 275 275 278 283 302 302 312 322 350 350 361 372 377 377 371 365 360 360 376 389 416 416 431 446 472 472 484 483 464 464 447 466 512 512 527 543 551 551 548 545 506 506 494 500 526 526 534 530 526 526 528 545 584 584 606 612 616 616 607 600 592 592 575 566 558 558 546 541 536 536 503 500 496 496 522 526 531 531 530 527 523 523 515 520 535 535 558 566 573 573 587 593 598 598 606 613 616 616 619 617 615 615 610 607 604 604 597 593 578 578 549 531 523 523 529 545 555 555 570 575 571 567 567 564 561 554 554 556 558 571 571 576 582 583 583 582 578 568 568 561 555 540 540 531 523 499 499 491 483 462 462 445 428 396 396 387 377 391 391 415 419 427 427 431 447 480 480 497 509 530 530 538 548 548 548 546 544 534 534 527 520 514 514 502 497 490 490 484 482 480 480 474 471 467 467 459 453 440 440 430 426 424 424 423 426 425 425 422 419 417 417 410 406 401 401 385 377 368 368 355 364 373 373 409 418 420 420 420 416 407 407 386 374 363 363 341 323 315 315 314 316 318 318 315 310 305 298 298 306 330 344 344 343 337 325 325 319 310 295 295 288 281 278 278 282 286 289 289 288 286 287 287 289 292 293 293 297 307 329 329 342 351 367 367 374 379 395 395 399 404 409 409 410 412 408 408 406 403 398 398 389 381 362 362 352 344 336 336 322 318 313 313 308 301 295 295 280 272 257 257 223 204 199 199 196 200 234 234 266 283 301 301 326 337 348 348 359 364 370 370 367 362 357 357 346 340 337 337 327 321 314 314 291 284 276 276 261 254 246 246 230 226 221 221 217 218 226 226 240 246 251 261 261 267 270 274 274 278 280 281 281 281 282 283 283 282 280 303 303 313 330 343 343 349 351 352 352 351 349 345 345 343 341 334 334 335 337 343 343 344 346 348 348 348 349 343 343 340 336 328 328 323 319 310 310 305 302 292 292 290 288 287 287 284 282 282 282 280 278 277 277 274 275 277 277 280 283 286 286 290 289 288 288 278 267 261 261 248 240 228 228 206 196 207 207 228 238 237 237 232 230 228 228 222 220 217 217 213 207 197 197 191 188 188 188 187 186 186 186 184 182 181 181 173 170 166 162 162 160 158 155 155 155 155 151 151 150 151 156 156 160 165 173 173 176 177 179 179 178 179 183 183 187 192 202 202 205 209 210 210 208 204 199 199 195 188 172 172 164 162 166 166 174 185 212 212 217 223 237 237 248 260 289 289 298 308 320 320 320 316 312 312 302 295 287 287 275 271 266 266 253 249 247 247 243 242 242
271 270 270 269 268 269 269 276 282 297 297 312 323 334 334 365 376 388 388 386 386 386 386 400 409 410 410 400 389 372 372 336 317 307 307 282 285 289 289 331 353 375 402 402 398 393 378 378 354 342 320 320 310 306 312 312 323 338 364 364 375 396 402 402 398 393 370 370 369 367 379 379 377 368 351 351 341 339 348 348 360 370 387 387 393 400 407 407 402 397 375 375 364 352 334 334 330 325 319 319 315 311 306 306 304 303 301 301 294 294 293 293 290 289 288 288 287 287 283 283 275 271 264 264 249 232 223 223 216 217 219 219 210 205 199 199 194 200 209 209 226 234 236 236 237 234 230 230 221 216 227 227 252 265 279 279 299 309 320 320 339 340 341 341 308 292 279 266 266 267 272 285 285 293 303 326 326 332 338 356 356 365 374 386 386 388 391 393 393 398 410 436 436 450 463 484 484 491 485 459 459 440 463 505 505 523 542 557 557 553 549 510 510 488 473 491 491 500 495 498 498 507 532 577 577 596 596 592 592 588 586 580 580 569 564 560 560 552 548 545 545 513 496 479 479 504 512 521 521 513 505 497 497 511 527 539 539 557 564 570 570 582 589 595 595 607 614 616 616 616 615 613 613 607 604 600 600 594 591 576 576 543 521 517 517 529 547 554 554 562 563 551 550 550 549 548 548 548 554 560 574 574 577 581 583 583 581 576 562 562 554 547 529 529 518 509 489 489 485 480 465 465 451 437 397 397 387 376 407 407 444 452 463 463 465 477 500 500 510 521 540 540 549 554 550 550 544 538 522 522 515 508 502 502 492 488 481 481 475 474 473 473 469 466 462 462 449 441 437 437 445 450 451 451 452 453 451 451 445 440 436 436 421 415 409 409 393 385 376 376 356 354 351 351 380 390 394 394 397 395 387 387 368 357 347 347 328 320 319 319 330 331 333 333 327 323 318 302 302 300 305 309 309 305 301 295 295 292 289 283 283 281 277 274 274 273 271 270 270 270 270 273 273 275 277 298 298 313 322 341 341 350 360 380 380 389 394 408 408 411 415 415 415 412 409 402 402 399 396 392 392 383 373 352 352 341 331 320 320 305 301 296 296 292 288 284 284 273 266 256 256 228 210 202 202 195 197 233 233 271 286 301 301 323 332 342 342 356 361 368 368 364 359 353 353 341 334 329 329 319 315 310 310 291 284 277 277 263 257 250 250 234 229 224 224 217 215 215 215 222 229 235 249 249 257 260 264 264 267 268 266 266 266 265 268 268 269 271 298 298 310 328 340 340 346 349 352 352 351 350 348 348 347 344 341 341 344 347 352 352 353 354 353 353 353 352 340 340 337 332 323 323 319 315 307 307 302 299 290 290 289 287 286 286 283 281 280 280 277 275 274 274 270 271 273 273 277 280 283 283 289 287 284 284 274 264 257 257 238 227 215 215 204 205 223 223 247 252 240 240 233 230 226 226 220 219 218 218 210 206 198 198 195 194 194 194 195 194 193 193 190 188 186 186 178 175 172 165 165 162 159 156 156 156 157 154 154 151 151 150 150 151 152 157 157 160 163 167 167 171 173 181 181 185 190 200 200 204 208 209 209 207 203 198 198 194 187 170 170 160 159 164 164 171 178 198 198 203 209 224 224 236 249 279 279 289 300 313 313 316 314 311 311 303 298 293 293 281 276 271 271 258 254 250 250 244 242 242
257 256 256 259 264 268 268 279 286 305 305 324 336 348 348 376 378 380 380 368 363 358 358 373 385 391 391 392 387 372 372 339 320 307 307 280 282 284 284 317 339 362 393 393 395 397 377 377 353 341 318 318 308 304 314 314 328 341 363 363 371 380 381 381 379 376 357 357 355 353 363 363 361 352 338 338 331 335 348 348 357 368 387 387 396 402 402 402 395 388 368 368 359 349 338 338 334 330 321 321 317 313 308 308 308 305 302 302 296 296 295 295 290 291 290 290 288 286 282 282 274 270 262 262 246 232 227 227 215 215 216 216 207 201 195 195 192 201 212 212 231 240 243 243 245 243 240 240 231 225 218 218 232 246 260 260 282 293 305 305 321 322 324 324 300 287 276 269 269 275 283 302 302 312 321 342 342 344 346 355 355 362 370 384 384 390 397 412 412 430 441 464 464 476 487 505 505 512 502 466 466 441 448 490 490 511 533 553 553 550 547 521 521 497 458 450 450 457 464 495 495 519 543 570 570 573 565 553 553 557 565 567 567 569 568 565 565 557 552 547 547 521 498 475 475 484 493 503 503 485 482 479 479 511 524 533 533 550 558 567 567 584 593 599 599 608 611 612 612 611 610 609 609 601 598 594 594 591 588 569 569 530 507 509 509 526 542 546 546 546 541 523 530 530 536 542 557 557 562 568 578 578 580 583 582 582 579 573 558 558 549 537 510 510 495 486 473 473 475 478 476 476 461 445 395 395 389 383 426 426 465 473 485 485 490 495 511 511 521 532 550 550 557 555 546 546 540 533 515 515 508 500 495 495 488 485 480 480 474 471 467 467 459 456 452 452 443 444 454 454 466 471 474 474 477 476 473 473 464 458 452 452 427 418 409 409 390 381 372 372 357 351 345 345 355 364 368 368 372 373 367 367 352 342 334 334 324 330 337 337 347 346 344 344 335 330 324 313 313 306 295 291 291 289 289 290 290 292 293 296 296 297 294 284 284 278 271 266 266 265 264 263 263 264 265 288 288 301 308 329 329 343 359 387 387 398 402 412 412 413 415 410 410 405 400 392 392 390 387 384 384 377 368 348 348 336 323 310 310 290 284 278 278 273 274 271 271 263 257 249 249 228 215 205 205 196 197 232 232 265 278 292 292 316 327 339 339 355 359 363 363 357 352 347 347 335 328 322 322 311 306 302 302 286 280 273 273 259 253 246 246 234 229 224 224 215 213 212 212 213 217 222 235 235 242 245 251 251 254 255 254 254 254 254 258 258 262 266 290 290 303 323 337 337 343 348 353 353 354 354 353 353 351 351 351 351 353 356 359 359 359 358 355 355 352 349 339 339 335 330 321 321 316 312 305 305 302 301 296 296 295 293 292 292 289 286 284 284 278 274 271 271 268 270 273 273 277 280 283 283 285 283 280 280 273 257 244 244 219 207 204 204 217 233 246 246 257 254 245 245 237 232 227 227 220 220 219 219 210 208 206 206 204 203 204 204 206 206 202 202 195 193 191 191 184 181 178 170 170 166 162 158 158 157 156 157 157 156 154 150 150 149 149 149 149 150 152 158 158 163 165 172 172 178 185 198 198 201 205 207 207 206 202 194 194 189 181 165 165 157 158 172 172 186 192 199 199 203 208 221 221 231 241 269 269 279 290 306 306 310 308 306 306 299 294 289 289 281 277 272 272 262 258 254 254 247 245 244
257 256 256 259 264 268 268 279 286 305 305 324 336 348 348 376 378 380 380 368 363 358 358 373 385 391 391 392 387 372 372 339 320 307 307 280 282 284 284 317 339 362 393 393 395 397 377 377 353 341 318 318 308 304 314 314 328 341 363 363 371 380 381 381 379 376 357 357 355 353 363 363 361 352 338 338 331 335 348 348 357 368 387 387 396 402 402 402 395 388 368 368 359 349 338 338 334 330 321 321 317 313 308 308 308 305 302 302 296 296 295 295 290 291 290 290 288 286 282 282 274 270 262 262 246 232 227 227 215 215 216 216 207 201 195 195 192 201 212 212 231 240 243 243 245 243 240 240 231 225 218 218 232 246 260 260 282 293 305 305 321 322 324 324 300 287 276 269 269 275 283 302 302 312 321 342 342 344 346 355 355 362 370 384 384 390 397 412 412 430 441 464 464 476 487 505 505 512 502 466 466 441 448 490 490 511 533 553 553 550 547 521 521 497 458 450 450 457 464 495 495 519 543 570 570 573 565 553 553 557 565 567 567 569 568 565 565 557 552 547 547 521 498 475 475 484 493 503 503 485 482 479 479 511 524 533 533 550 558 567 567 584 593 599 599 608 611 612 612 611 610 609 609 601 598 594 594 591 588 569 569 530 507 509 509 526 542 546 546 546 541 523 530 530 536 542 557 557 562 568 578 578 580 583 582 582 579 573 558 558 549 537 510 510 495 486 473 473 475 478 476 476 461 445 395 395 389 383 426 426 465 473 485 485 490 495 511 511 521 532 550 550 557 555 546 546 540 533 515 515 508 500 495 495 488 485 480 480 474 471 467 467 459 456 452 452 443 444 454 454 466 471 474 474 477 476 473 473 464 458 452 452 427 418 409 409 390 381 372 372 357 351 345 345 355 364 368 368 372 373 367 367 352 342 334 334 324 330 337 337 347 346 344 344 335 330 324 313 313 306 295 291 291 289 289 290 290 292 293 296 296 297 294 284 284 278 271 266 266 265 264 263 263 264 265 288 288 301 308 329 329 343 359 387 387 398 402 412 412 413 415 410 410 405 400 392 392 390 387 384 384 377 368 348 348 336 323 310 310 290 284 278 278 273 274 271 271 263 257 249 249 228 215 205 205 196 197 232 232 265 278 292 292 316 327 339 339 355 359 363 363 357 352 347 347 335 328 322 322 311 306 302 302 286 280 273 273 259 253 246 246 234 229 224 224 215 213 212 212 213 217 222 235 235 242 245 251 251 254 255 254 254 254 254 258 258 262 266 290 290 303 323 337 337 343 348 353 353 354 354 353 353 351 351 351 351 353 356 359 359 359 358 355 355 352 349 339 339 335 330 321 321 316 312 305 305 302 301 296 296 295 293 292 292 289 286 284 284 278 274 271 271 268 270 273 273 277 280 283 283 285 283 280 280 273 257 244 244 219 207 204 204 217 233 246 246 257 254 245 245 237 232 227 227 220 220 219 219 210 208 206 206 204 203 204 204 206 206 202 202 195 193 191 191 184 181 178 170 170 166 162 158 158 157 156 157 157 156 154 150 150 149 149 149 149 150 152 158 158 163 165 172 172 178 185 198 198 201 205 207 207 206 202 194 194 189 181 165 165 157 158 172 172 186 192 199 199 203 208 221 221 231 241 269 269 279 290 306 306 310 308 306 306 299 294 289 289 281 277 272 272 262 258 254 254 247 245 244
257 256 256 259 264 268 268 279 286 305 305 324 336 348 348 376 378 380 380 368 363 358 358 373 385 391 391 392 387 372 372 339 320 307 307 280 282 284 284 317 339 362 393 393 395 397 377 377 353 341 318 318 308 304 314 314 328 341 363 363 371 380 381 381 379 376 357 357 355 353 363 363 361 352 338 338 331 335 348 348 357 368 387 387 396 402 402 402 395 388 368 368 359 349 338 338 334 330 321 321 317 313 308 308 308 305 302 302 296 296 295 295 290 291 290 290 288 286 282 282 274 270 262 262 246 232 227 227 215 215 216 216 207 201 195 195 192 201 212 212 231 240 243 243 245 243 240 240 231 225 218 218 232 246 260 260 282 293 305 305 321 322 324 324 300 287 276 269 269 275 283 302 302 312 321 342 342 344 346 355 355 362 370 384 384 390 397 412 412 430 441 464 464 476 487 505 505 512 502 466 466 441 448 490 490 511 533 553 553 550 547 521 521 497 458 450 450 457 464 495 495 519 543 570 570 573 565 553 553 557 565 567 567 569 568 565 565 557 552 547 547 521 498 475 475 484 493 503 503 485 482 479 479 511 524 533 533 550 558 567 567 584 593 599 599 608 611 612 612 611 610 609 609 601 598 594 594 591 588 569 569 530 507 509 509 526 542 546 546 546 541 523 530 530 536 542 557 557 562 568 578 578 580 583 582 582 579 573 558 558 549 537 510 510 495 486 473 473 475 478 476 476 461 445 395 395 389 383 426 426 465 473 485 485 490 495 511 511 521 532 550 550 557 555 546 546 540 533 515 515 508 500 495 495 488 485 480 480 474 471 467 467 459 456 452 452 443 444 454 454 466 471 474 474 477 476 473 473 464 458 452 452 427 418 409 409 390 381 372 372 357 351 345 345 355 364 368 368 372 373 367 367 352 342 334 334 324 330 337 337 347 346 344 344 335 330 324 313 313 306 295 291 291 289 289 290 290 292 293 296 296 297 294 284 284 278 271 266 266 265 264 263 263 264 265 288 288 301 308 329 329 343 359 387 387 398 402 412 412 413 415 410 410 405 400 392 392 390 387 384 384 377 368 348 348 336 323 310 310 290 284 278 278 273 274 271 271 263 257 249 249 228 215 205 205 196 197 232 232 265 278 292 292 316 327 339 339 355 359 363 363 357 352 347 347 335 328 322 322 311 306 302 302 286 280 273 273 259 253 246 246 234 229 224 224 215 213 212 212 213 217 222 235 235 242 245 251 251 254 255 254 254 254 254 258 258 262 266 290 290 303 323 337 337 343 348 353 353 354 354 353 353 351 351 351 351 353 356 359 359 359 358 355 355 352 349 339 339 335 330 321 321 316 312 305 305 302 301 296 296 295 293 292 292 289 286 284 284 278 274 271 271 268 270 273 273 277 280 283 283 285 283 280 280 273 257 244 244 219 207 204 204 217 233 246 246 257 254 245 245 237 232 227 227 220 220 219 219 210 208 206 206 204 203 204 204 206 206 202 202 195 193 191 191 184 181 178 170 170 166 162 158 158 157 156 157 157 156 154 150 150 149 149 149 149 150 152 158 158 163 165 172 172 178 185 198 198 201 205 207 207 206 202 194 194 189 181 165 165 157 158 172 172 186 192 199 199 203 208 221 221 231 241 269 269 279 290 306 306 310 308 306 306 299 294 289 289 281 277 272 272 262 258 254 254 247 245 244
247 252 252 262 267 271 271 284 293 314 314 338 349 361 361 381 372 363 363 344 339 334 334 353 366 376 376 386 384 373 373 344 326 312 312 279 279 280 280 302 326 351 393 393 394 395 373 373 349 338 317 317 306 304 315 315 329 338 352 352 356 360 359 359 358 356 345 345 342 338 339 339 336 331 330 330 332 337 355 355 367 378 396 396 403 403 394 394 386 378 362 362 357 352 344 344 340 336 327 327 322 317 311 311 311 308 304 304 300 299 297 297 290 288 286 286 282 279 275 275 268 264 258 258 244 233 229 229 213 211 209 209 198 195 192 192 193 204 215 215 235 244 249 249 255 255 252 252 243 237 228 228 225 229 234 234 252 264 276 276 294 295 296 296 277 269 266 269 269 277 288 309 309 320 329 347 347 347 346 348 348 353 359 375 375 385 396 423 423 451 462 484 484 496 507 524 524 530 520 480 480 451 432 471 471 492 513 535 535 536 538 521 521 504 462 434 434 430 452 499 499 525 539 549 549 544 531 516 516 531 548 557 557 567 568 565 565 557 552 546 546 524 507 489 489 459 462 466 466 461 473 485 485 525 537 545 545 560 567 575 575 590 598 601 601 606 607 608 608 605 603 600 600 592 589 586 586 586 583 562 562 519 493 495 495 509 522 523 523 518 511 520 547 547 554 561 569 569 572 575 581 581 583 585 580 580 576 570 554 554 544 532 503 503 485 468 452 452 464 477 482 482 461 440 386 386 393 400 443 443 472 480 493 493 498 504 522 522 534 544 559 559 563 556 543 543 535 527 511 511 505 499 497 497 494 492 487 487 480 477 474 474 463 456 449 449 449 456 470 470 483 490 492 492 493 492 488 488 476 469 460 460 425 414 402 402 385 379 372 372 360 355 349 349 337 339 341 341 343 344 341 341 332 326 325 325 330 345 353 353 358 356 354 354 343 337 331 319 319 314 305 299 299 297 300 306 306 310 313 319 319 322 316 299 299 291 282 275 275 273 270 266 266 264 262 271 271 279 291 324 324 345 363 390 390 400 403 404 404 404 403 401 401 398 394 385 385 381 377 373 373 369 363 345 345 333 322 310 310 290 283 276 276 261 257 256 256 251 246 241 241 227 218 207 207 196 197 234 234 271 282 293 293 317 327 338 338 351 353 354 354 348 344 340 340 329 322 317 317 306 299 294 294 275 271 266 266 255 249 242 242 232 228 224 224 212 209 208 208 208 209 213 221 221 225 229 236 236 242 245 251 251 256 261 270 270 272 275 287 287 299 321 339 339 346 351 357 357 359 359 358 358 357 357 362 362 364 367 365 365 363 361 357 357 355 353 341 341 337 334 326 326 322 317 310 310 307 307 303 303 301 299 298 298 293 290 287 287 280 276 273 273 267 270 273 273 277 279 281 281 282 279 275 275 268 245 230 230 209 203 216 216 242 255 256 256 257 255 248 248 239 235 231 231 224 223 222 222 216 217 219 219 217 213 213 213 214 213 208 208 199 196 194 194 188 185 182 176 176 172 168 161 161 159 157 156 156 155 155 154 154 153 152 149 149 148 148 150 150 154 157 161 161 167 174 191 191 196 202 205 205 204 199 189 189 182 173 159 159 155 161 179 179 191 197 211 211 214 217 225 225 231 238 258 258 269 280 295 295 301 300 299 299 291 288 284 284 279 275 271 271 262 260 258 258 254 252 250
253 258 258 268 274 277 277 290 299 325 325 353 364 376 376 389 374 359 359 331 327 322 322 338 349 360 360 373 375 366 366 343 329 316 316 279 278 277 277 292 317 342 386 386 384 382 363 363 345 334 313 313 302 299 305 305 315 321 328 328 330 332 333 333 332 331 325 325 324 323 323 323 323 323 331 331 338 346 366 366 379 388 401 401 404 400 386 386 379 372 360 360 358 356 350 350 346 341 331 331 323 319 315 315 316 311 305 305 299 296 293 293 283 278 275 275 269 265 264 264 258 254 250 250 241 231 225 225 213 209 205 205 195 194 192 192 193 208 221 221 243 252 258 258 265 267 265 265 258 254 244 244 239 237 234 234 231 238 246 246 265 262 259 259 252 251 257 272 272 281 291 310 310 319 325 338 338 336 333 332 332 337 343 367 367 380 394 427 427 462 475 500 500 512 522 536 536 540 527 484 484 455 424 459 459 476 493 508 508 509 510 500 500 489 457 429 429 421 446 493 493 515 523 525 525 518 503 495 495 521 538 546 546 555 554 552 552 546 543 538 538 519 508 497 497 452 444 435 435 462 481 500 500 537 547 552 552 566 574 581 581 594 599 600 600 602 603 602 602 599 596 593 593 581 577 572 572 576 572 555 555 519 494 482 482 474 480 484 484 498 508 544 565 565 569 574 576 576 578 581 584 584 584 584 576 576 571 564 548 548 538 527 502 502 487 465 433 433 450 467 472 472 451 429 382 382 397 412 449 449 460 470 491 491 502 513 536 536 548 556 565 565 567 559 541 541 533 525 510 510 507 504 504 504 503 501 493 493 485 480 475 475 464 460 455 455 462 467 480 480 494 500 503 503 506 505 501 501 487 478 468 468 429 421 413 413 397 387 377 377 358 351 344 344 335 333 332 332 331 330 330 330 329 328 333 333 345 358 365 365 370 367 364 364 353 346 339 327 327 321 312 308 308 309 314 325 325 331 336 344 344 347 335 316 316 307 298 291 291 288 284 275 275 269 263 264 264 269 288 329 329 351 367 390 390 396 396 393 393 393 393 397 397 396 394 383 383 378 373 362 362 361 357 342 342 330 321 312 312 295 284 273 273 260 246 242 242 236 233 230 230 220 213 204 204 197 200 244 244 282 290 299 299 322 330 338 338 342 342 342 342 338 335 332 332 324 319 314 314 303 297 291 291 268 264 260 260 252 247 241 241 232 227 222 222 209 205 205 205 207 210 213 218 218 221 224 232 232 241 246 267 267 275 284 287 287 288 289 296 296 303 322 342 342 350 355 363 363 365 365 366 366 366 366 370 370 371 373 367 367 365 362 360 360 358 356 345 345 341 338 330 330 326 323 317 317 315 315 309 309 308 306 303 303 296 292 289 289 282 278 273 273 266 268 270 270 275 275 276 276 275 273 270 270 257 231 218 218 211 219 236 236 257 261 259 259 255 252 247 247 242 239 235 235 229 229 228 228 232 232 231 231 228 226 220 220 212 210 208 208 202 199 197 197 189 186 183 179 179 175 171 165 165 163 160 157 157 156 155 154 154 153 152 150 150 148 148 148 148 148 149 153 153 156 160 177 177 186 196 201 201 200 195 184 184 176 167 159 159 160 171 190 190 198 202 212 212 215 218 224 224 227 231 247 247 259 271 285 285 288 287 286 286 282 279 276 276 270 267 264 264 259 257 257 257 256 255 253
